3264.750000, 3180.410000, 3067.710000, 3008.580000, 2936.780000, 2885.410000, 2805.980000, 2744.310000, 2692.890000, 2652.780000, 2628.720000, 2593.220000, 2541.490000, 2472.720000, 2423.890000, 2337.890000, 2317.900000, 2285.200000, 2256.710000, 2229.880000, 2199.280000, 2196.610000, 2226.420000, 2267.800000, 2304.620000, 2376.900000, 2459.090000, 2535.310000, 2545.920000, 2576.910000, 2626.620000, 2814.790000, 3002.010000, 2843.680000, 2761.320000, 2714.900000, 2678.380000, 2616.180000, 2483.590000, 2530.800000, 2390.490000, 2374.790000, 2437.910000, 2382.510000, 2307.600000, 2204.500000, 2054.810000, 1979.510000, 1935.980000, 2011.590000, 2126.610000, 2320.310000, 2351.300000, 2213.620000, 2121.090000, 1919.320000, 1679.900000, 1518.600000, 1445.700000, 1423.390000, 1414.320000, 1426.680000, 1520.000000, 1611.480000, 1722.200000, 1917.610000, 2010.800000, 2223.220000, 2348.710000, 2391.490000, 2565.990000, 2596.990000, 2515.980000, 2524.790000, 2555.210000, 2548.590000, 2580.110000, 2634.590000, 2701.310000, 2788.010000, 3003.710000, 2889.700000, 2789.110000, 2693.110000, 2603.520000, 2608.290000, 2618.420000, 2632.890000, 2653.000000, 2650.820000, 2652.300000, 2637.990000, 2731.700000, 2844.700000, 2931.200000, 2926.710000, 2986.680000, 3056.820000, 3174.580000, 3144.990000
3275.050000, 3186.190000, 3098.920000, 3042.810000, 2979.520000, 2908.820000, 2810.100000, 2705.120000, 2665.410000, 2618.290000, 2585.020000, 2570.680000, 2553.110000, 2519.090000, 2464.520000, 2405.610000, 2354.590000, 2293.700000, 2264.600000, 2239.390000, 2217.300000, 2192.580000, 2159.790000, 2171.100000, 2219.100000, 2288.790000, 2378.300000, 2445.980000, 2466.710000, 2515.890000, 2638.490000, 2749.920000, 2883.090000, 2918.590000, 2844.990000, 2787.790000, 2746.590000, 2695.000000, 2643.320000, 2584.410000, 2459.390000, 2459.090000, 2487.800000, 2414.510000, 2325.480000, 2218.700000, 2112.800000, 1980.290000, 1888.110000, 1885.400000, 1943.780000, 2118.410000, 2114.290000, 2081.510000, 1969.690000, 1742.500000, 1541.790000, 1471.390000, 1442.500000, 1417.780000, 1410.990000, 1457.800000, 1618.010000, 1703.620000, 1813.900000, 1996.990000, 2102.720000, 2198.190000, 2360.280000, 2542.980000, 2608.210000, 2416.700000, 2399.120000, 2435.420000, 2454.000000, 2465.400000, 2521.110000, 2572.000000, 2676.720000, 2766.180000, 3008.580000, 2928.410000, 2829.520000, 2714.500000, 2612.280000, 2613.990000, 2629.600000, 2644.980000, 2672.380000, 2694.510000, 2718.820000, 2721.790000, 2729.690000, 2834.610000, 2930.810000, 3040.020000, 3101.910000, 3159.520000, 3231.100000, 3341.700000
3284.070000, 3202.500000, 3120.400000, 3065.610000, 3001.610000, 2924.590000, 2818.910000, 2726.910000, 2597.290000, 2594.490000, 2594.490000, 2579.720000, 2559.420000, 2528.080000, 2476.400000, 2425.290000, 2387.510000, 2302.820000, 2251.010000, 2228.080000, 2215.990000, 2198.190000, 2161.900000, 2150.190000, 2140.990000, 2187.580000, 2270.690000, 2362.920000, 2413.100000, 2443.300000, 2559.200000, 2648.620000, 2811.510000, 2910.310000, 2989.990000, 2925.120000, 2843.420000, 2788.490000, 2698.200000, 2639.020000, 2562.310000, 2562.310000, 2557.890000, 2461.580000, 2382.420000, 2280.680000, 2178.200000, 2011.590000, 1890.790000, 1801.500000, 1793.080000, 1818.510000, 1837.310000, 1838.580000, 1748.590000, 1611.390000, 1489.100000, 1457.800000, 1411.290000, 1400.290000, 1411.910000, 1532.580000, 1687.880000, 1816.180000, 1882.500000, 2030.090000, 2164.090000, 2229.400000, 2290.500000, 2488.800000, 2482.010000, 2312.510000, 2256.710000, 2311.410000, 2378.910000, 2438.220000, 2504.100000, 2591.900000, 2709.200000, 2818.520000, 2919.510000, 2999.680000, 2852.180000, 2756.010000, 2657.390000, 2622.410000, 2642.310000, 2658.920000, 2683.600000, 2718.820000, 2742.300000, 2749.200000, 2749.980000, 2771.280000, 2860.020000, 2971.320000, 3063.500000, 3195.700000, 3333.800000, 3402.020000
3159.980000, 3090.420000, 3063.110000, 3036.200000, 2976.410000, 2904.610000, 2812.120000, 2706.090000, 2616.320000, 2611.190000, 2596.680000, 2581.290000, 2570.820000, 2550.520000, 2481.400000, 2410.910000, 2368.220000, 2304.790000, 2246.190000, 2200.910000, 2193.590000, 2186.790000, 2158.700000, 2150.020000, 2139.010000, 2148.610000, 2185.700000, 2261.310000, 2288.490000, 2390.180000, 2489.990000, 2605.710000, 2709.290000, 2819.920000, 2929.990000, 3056.800000, 2897.590000, 2818.300000, 2765.220000, 2700.910000, 2715.120000, 2615.000000, 2551.880000, 2481.000000, 2400.610000, 2310.800000, 2192.710000, 2104.300000, 1915.420000, 1789.880000, 1733.380000, 1715.890000, 1702.210000, 1706.990000, 1667.980000, 1560.280000, 1457.490000, 1429.480000, 1401.610000, 1389.420000, 1433.080000, 1592.280000, 1766.210000, 1807.110000, 1849.010000, 1861.510000, 1933.700000, 1990.600000, 2103.290000, 2283.490000, 2243.290000, 2138.180000, 2109.380000, 2181.880000, 2324.390000, 2393.120000, 2490.380000, 2579.490000, 2662.380000, 2763.290000, 2848.280000, 2984.780000, 2885.010000, 2779.810000, 2687.590000, 2630.690000, 2647.700000, 2664.880000, 2682.290000, 2717.600000, 2746.190000, 2760.590000, 2767.090000, 2775.390000, 2819.910000, 2908.290000, 3005.710000, 3106.180000, 3252.620000, 3403.900000
3058.660000, 3029.400000, 2970.710000, 2927.400000, 2905.400000, 2857.790000, 2772.190000, 2638.410000, 2629.510000, 2623.680000, 2607.990000, 2595.320000, 2579.890000, 2563.720000, 2551.000000, 2502.790000, 2424.280000, 2316.410000, 2305.320000, 2287.920000, 2247.720000, 2198.320000, 2168.300000, 2171.100000, 2161.410000, 2140.900000, 2187.800000, 2208.100000, 2233.690000, 2383.520000, 2452.380000, 2567.400000, 2657.610000, 2820.180000, 2940.900000, 3019.890000, 2946.290000, 2869.890000, 2822.900000, 2899.610000, 2739.090000, 2635.910000, 2559.810000, 2484.420000, 2400.300000, 2316.580000, 2236.410000, 2135.810000, 1946.280000, 1786.420000, 1720.710000, 1698.880000, 1680.910000, 1644.400000, 1592.190000, 1571.420000, 1454.210000, 1420.720000, 1378.900000, 1428.080000, 1517.500000, 1747.710000, 1844.980000, 1849.010000, 1849.010000, 1849.010000, 1873.780000, 1914.890000, 1959.080000, 2102.590000, 2036.010000, 2004.010000, 2038.680000, 2169.300000, 2323.600000, 2421.610000, 2500.290000, 2543.110000, 2634.290000, 2726.380000, 2828.990000, 2902.500000, 2933.800000, 2820.800000, 2699.510000, 2653.090000, 2644.110000, 2657.910000, 2677.010000, 2713.410000, 2763.690000, 2768.400000, 2778.880000, 2786.080000, 2803.710000, 2840.680000, 2929.500000, 3089.120000, 3253.580000, 3488.620000
3014.320000, 2989.820000, 2935.110000, 2876.820000, 2831.580000, 2786.610000, 2737.690000, 2658.090000, 2649.010000, 2638.010000, 2621.880000, 2609.210000, 2585.020000, 2597.690000, 2599.310000, 2601.410000, 2561.220000, 2504.010000, 2471.620000, 2457.420000, 2410.210000, 2343.720000, 2204.900000, 2213.090000, 2200.910000, 2185.390000, 2152.820000, 2173.380000, 2214.580000, 2296.900000, 2407.100000, 2549.290000, 2677.200000, 2756.190000, 2839.820000, 3001.000000, 2981.100000, 2907.190000, 2944.190000, 2838.590000, 2718.180000, 2632.090000, 2550.520000, 2463.120000, 2379.880000, 2275.910000, 2164.220000, 1988.580000, 1880.620000, 1806.010000, 1791.110000, 1772.090000, 1767.610000, 1742.590000, 1742.410000, 1707.390000, 1401.910000, 1337.920000, 1332.920000, 1411.120000, 1632.080000, 1807.110000, 1836.520000, 1888.290000, 1851.380000, 1849.010000, 1849.010000, 1849.010000, 1849.010000, 1880.090000, 1918.620000, 1958.600000, 2062.610000, 2226.900000, 2326.180000, 2414.810000, 2510.810000, 2604.220000, 2611.410000, 2692.890000, 2792.310000, 2906.580000, 3044.300000, 2813.080000, 2727.780000, 2702.320000, 2658.310000, 2715.600000, 2674.390000, 2731.090000, 2770.590000, 2790.090000, 2792.500000, 2801.010000, 2806.590000, 2819.600000, 2896.510000, 2972.490000, 3082.090000, 3310.890000
3030.520000, 3000.600000, 2923.720000, 2846.480000, 2792.920000, 2770.210000, 2743.610000, 2693.200000, 2673.210000, 2660.720000, 2636.080000, 2611.710000, 2653.400000, 2687.190000, 2653.620000, 2643.490000, 2637.710000, 2619.910000, 2560.300000, 2501.390000, 2447.510000, 2387.110000, 2299.180000, 2125.290000, 2130.200000, 2146.680000, 2100.000000, 2103.420000, 2137.480000, 2245.620000, 2383.080000, 2487.180000, 2582.520000, 2707.880000, 2796.690000, 2878.220000, 2868.800000, 3053.290000, 3054.780000, 2892.600000, 2762.410000, 2680.310000, 2569.810000, 2460.490000, 2363.790000, 2270.300000, 2065.510000, 1945.180000, 1895.300000, 1911.080000, 1974.680000, 2014.480000, 1960.390000, 1897.320000, 1780.590000, 1614.590000, 1383.980000, 1305.000000, 1313.720000, 1403.180000, 1533.280000, 1803.910000, 2007.690000, 2018.080000, 2044.600000, 1978.800000, 1849.010000, 1849.010000, 1849.010000, 1849.010000, 1890.700000, 1956.800000, 2044.120000, 2143.790000, 2292.780000, 2396.100000, 2466.010000, 2576.820000, 2722.790000, 2742.820000, 2838.110000, 2906.410000, 3025.590000, 2827.110000, 2762.410000, 2731.600000, 2715.600000, 2797.780000, 2832.700000, 2834.700000, 2798.520000, 2814.710000, 2815.280000, 2815.800000, 2821.090000, 2824.010000, 2858.800000, 2951.590000, 3048.400000, 3149.400000
3024.730000, 2989.290000, 2903.910000, 2831.890000, 2777.800000, 2763.990000, 2745.890000, 2699.380000, 2690.700000, 2680.090000, 2643.890000, 2699.600000, 2740.410000, 2739.090000, 2783.410000, 2778.980000, 2691.880000, 2604.300000, 2542.500000, 2461.010000, 2395.920000, 2342.710000, 2250.920000, 2110.220000, 2059.720000, 2062.390000, 2074.490000, 2065.680000, 2079.490000, 2212.080000, 2359.980000, 2406.490000, 2567.880000, 2672.600000, 2637.490000, 2685.090000, 2842.100000, 3072.400000, 3004.590000, 2884.400000, 2778.500000, 2684.700000, 2568.580000, 2467.410000, 2393.910000, 2313.210000, 2189.380000, 1979.420000, 1993.710000, 2118.190000, 2164.000000, 2145.280000, 2044.290000, 1928.310000, 1766.610000, 1583.910000, 1381.090000, 1298.910000, 1294.390000, 1407.390000, 1589.390000, 1843.100000, 2015.800000, 2145.200000, 2174.700000, 2173.690000, 2034.210000, 1849.010000, 1849.010000, 1849.010000, 1890.000000, 1957.110000, 2055.290000, 2154.790000, 2200.210000, 2345.290000, 2454.700000, 2536.710000, 2616.580000, 2806.680000, 2853.980000, 2945.810000, 3024.800000, 2828.990000, 2792.700000, 2800.020000, 2809.310000, 2825.310000, 2923.220000, 2907.900000, 2856.700000, 2833.220000, 2835.620000, 2835.790000, 2840.590000, 2836.710000, 2853.510000, 2959.710000, 3051.890000, 3129.010000
3029.850000, 2973.690000, 2891.280000, 2814.880000, 2792.310000, 2768.590000, 2740.410000, 2703.590000, 2694.910000, 2679.700000, 2749.000000, 2791.390000, 2828.210000, 2854.810000, 2862.920000, 2750.710000, 2651.510000, 2503.010000, 2461.100000, 2404.910000, 2365.190000, 2271.390000, 2224.180000, 2113.500000, 2029.780000, 1965.790000, 1987.400000, 2014.620000, 2026.580000, 2160.190000, 2292.910000, 2382.510000, 2491.000000, 2503.010000, 2507.390000, 2687.980000, 2826.100000, 2990.390000, 3003.710000, 2902.110000, 2788.710000, 2687.410000, 2579.010000, 2494.590000, 2436.910000, 2335.210000, 2191.400000, 2137.920000, 2162.990000, 2218.700000, 2231.280000, 2155.580000, 2022.810000, 1974.600000, 1850.420000, 1572.380000, 1359.090000, 1289.790000, 1282.380000, 1394.680000, 1617.090000, 1794.400000, 1986.390000, 2128.580000, 2291.510000, 2281.690000, 2136.600000, 1890.790000, 1849.010000, 1891.400000, 2089.480000, 2119.200000, 2234.310000, 2274.680000, 2334.990000, 2368.700000, 2430.590000, 2527.290000, 2620.920000, 2720.810000, 2882.600000, 3054.780000, 3058.420000, 2885.010000, 2839.820000, 2868.710000, 2861.300000, 2899.920000, 3041.720000, 2987.380000, 2905.190000, 2858.710000, 2851.680000, 2849.280000, 2852.820000, 2850.900000, 2869.310000, 2950.580000, 3042.900000, 3132.810000
3057.320000, 2988.110000, 2890.190000, 2833.380000, 2818.780000, 2784.500000, 2742.690000, 2715.990000, 2689.910000, 2735.190000, 2792.700000, 2806.600000, 2938.800000, 2924.200000, 2821.890000, 2726.120000, 2616.180000, 2524.400000, 2528.300000, 2502.700000, 2432.920000, 2344.510000, 2228.080000, 2176.580000, 2082.290000, 2021.500000, 1925.020000, 1979.200000, 1996.200000, 2108.990000, 2225.500000, 2275.990000, 2302.120000, 2354.280000, 2462.500000, 2569.410000, 2709.810000, 2856.780000, 3018.790000, 2903.510000, 2814.090000, 2692.890000, 2595.580000, 2503.400000, 2418.580000, 2307.600000, 2200.510000, 2199.810000, 2267.090000, 2400.220000, 2241.890000, 2051.000000, 1909.420000, 1733.690000, 1607.490000, 1490.020000, 1379.120000, 1300.000000, 1293.290000, 1449.380000, 1591.710000, 1813.990000, 1968.810000, 2091.890000, 2263.280000, 2365.720000, 2181.880000, 1937.120000, 1866.720000, 1941.590000, 2228.480000, 2321.190000, 2327.890000, 2343.980000, 2432.610000, 2470.220000, 2481.400000, 2534.780000, 2591.680000, 2779.990000, 2886.990000, 3027.520000, 2946.910000, 2913.510000, 2899.300000, 2895.890000, 2929.900000, 2977.900000, 3124.600000, 3003.700000, 2906.590000, 2873.680000, 2864.120000, 2860.500000, 2863.200000, 2861.720000, 2868.010000, 2940.720000, 3012.910000, 3116.090000
3081.330000, 3001.000000, 2906.320000, 2864.810000, 2841.790000, 2799.100000, 2747.900000, 2758.120000, 2766.800000, 2845.780000, 2859.420000, 2870.420000, 3046.580000, 2923.890000, 2810.800000, 2729.890000, 2634.990000, 2587.390000, 2589.310000, 2550.300000, 2471.400000, 2411.310000, 2338.980000, 2212.790000, 2139.100000, 2040.780000, 1932.600000, 1906.610000, 1949.000000, 2027.020000, 2146.900000, 2186.880000, 2227.210000, 2302.210000, 2419.200000, 2540.700000, 2690.220000, 2792.390000, 2996.790000, 3022.610000, 2755.790000, 2678.510000, 2625.080000, 2540.000000, 2422.000000, 2299.800000, 2268.590000, 2303.210000, 2466.800000, 2451.110000, 2290.280000, 2149.710000, 1996.380000, 1899.990000, 1746.090000, 1458.280000, 1343.090000, 1300.090000, 1288.520000, 1502.820000, 1600.390000, 1880.790000, 2029.080000, 2125.690000, 2257.500000, 2420.690000, 2252.980000, 2026.890000, 1916.690000, 2004.010000, 2251.800000, 2422.220000, 2408.500000, 2453.300000, 2509.890000, 2569.110000, 2588.000000, 2643.890000, 2642.220000, 2706.480000, 2892.600000, 3086.120000, 2987.890000, 2943.010000, 2942.480000, 2942.610000, 3006.210000, 3125.090000, 3063.110000, 2981.490000, 2900.220000, 2885.110000, 2878.300000, 2868.790000, 2872.110000, 2865.300000, 2880.620000, 2913.310000, 3019.280000, 3080.300000
3122.530000, 3034.880000, 2964.310000, 2937.610000, 2898.120000, 2906.010000, 2847.800000, 2810.320000, 2821.500000, 3017.610000, 2983.680000, 3055.920000, 3073.720000, 2942.610000, 2851.310000, 2783.320000, 2669.400000, 2635.600000, 2639.110000, 2595.190000, 2525.890000, 2443.390000, 2376.590000, 2269.290000, 2183.810000, 2108.810000, 2020.710000, 1894.380000, 1883.290000, 1931.200000, 2045.210000, 2118.980000, 2178.600000, 2263.590000, 2372.910000, 2494.110000, 2617.410000, 2828.690000, 2975.310000, 3015.510000, 2778.720000, 2707.090000, 2609.520000, 2553.500000, 2471.490000, 2367.910000, 2389.520000, 2353.100000, 2355.110000, 2227.300000, 2196.610000, 2079.400000, 2012.290000, 1862.910000, 1686.000000, 1478.620000, 1268.090000, 1225.880000, 1293.510000, 1520.000000, 1612.310000, 1799.090000, 1976.920000, 2138.310000, 2286.120000, 2424.500000, 2306.810000, 2144.710000, 2042.580000, 2047.180000, 2296.290000, 2506.820000, 2591.680000, 2559.110000, 2584.320000, 2638.800000, 2648.710000, 2742.200000, 2776.000000, 2783.190000, 2911.710000, 3123.600000, 3051.490000, 2980.920000, 2966.410000, 3007.480000, 3129.600000, 3077.310000, 3015.090000, 2944.690000, 2909.300000, 2899.210000, 2892.320000, 2878.920000, 2881.580000, 2869.100000, 2913.490000, 2967.000000, 3067.690000, 3117.880000
3124.780000, 3061.710000, 3004.280000, 2977.200000, 2982.590000, 2997.890000, 2934.720000, 2869.100000, 2900.180000, 3108.520000, 3171.680000, 3146.610000, 3043.910000, 2969.090000, 2879.180000, 2795.110000, 2726.120000, 2712.310000, 2679.920000, 2613.600000, 2555.610000, 2473.680000, 2371.290000, 2253.590000, 2212.390000, 2120.600000, 2047.710000, 1986.390000, 1877.810000, 1874.000000, 1902.490000, 2014.620000, 2137.790000, 2212.920000, 2328.510000, 2507.210000, 2642.000000, 2809.710000, 3016.300000, 3137.190000, 2971.190000, 2751.410000, 2655.500000, 2545.480000, 2424.110000, 2347.790000, 2300.410000, 2239.220000, 2109.910000, 2031.800000, 1956.490000, 1870.010000, 1819.910000, 1720.580000, 1629.100000, 1442.720000, 1217.510000, 1229.780000, 1331.390000, 1451.490000, 1677.710000, 1901.310000, 2027.900000, 2125.510000, 2231.900000, 2337.400000, 2570.200000, 2314.700000, 2170.490000, 2101.710000, 2219.490000, 2418.010000, 2587.910000, 2733.610000, 2689.910000, 2771.880000, 2717.610000, 2817.690000, 2838.290000, 2889.400000, 2998.500000, 3095.720000, 3086.210000, 3005.120000, 3015.510000, 3088.620000, 3162.000000, 3094.580000, 3003.090000, 2932.380000, 2915.010000, 2915.190000, 2904.710000, 2887.210000, 2882.010000, 2883.280000, 2946.090000, 3043.990000, 3104.220000, 3172.000000
3124.980000, 3063.020000, 3025.890000, 3030.010000, 3059.380000, 3059.210000, 3008.890000, 2958.610000, 3082.310000, 3161.600000, 3149.990000, 2977.810000, 3005.990000, 2981.490000, 2838.900000, 2777.800000, 2759.690000, 2735.590000, 2672.820000, 2609.610000, 2549.210000, 2482.100000, 2411.090000, 2371.810000, 2237.990000, 2155.410000, 2065.110000, 2015.890000, 1961.010000, 1874.000000, 1874.000000, 1888.900000, 2022.510000, 2175.480000, 2307.200000, 2504.800000, 2640.380000, 2818.210000, 3006.300000, 3200.790000, 2955.280000, 2693.110000, 2553.110000, 2472.590000, 2409.290000, 2350.910000, 2295.190000, 2212.080000, 2108.810000, 1945.100000, 1805.180000, 1705.720000, 1633.220000, 1583.210000, 1580.620000, 1310.080000, 1208.300000, 1250.380000, 1332.220000, 1500.890000, 1787.300000, 1905.910000, 2023.120000, 2105.920000, 2194.510000, 2401.880000, 2587.520000, 2432.300000, 2285.290000, 2182.890000, 2227.120000, 2320.000000, 2482.010000, 2575.810000, 2779.900000, 2925.380000, 2808.480000, 2905.400000, 2896.100000, 2958.610000, 3088.090000, 3165.900000, 3145.210000, 3059.210000, 3078.320000, 3200.310000, 3158.320000, 3086.520000, 3001.390000, 2938.800000, 2932.820000, 2931.990000, 2917.980000, 2897.900000, 2883.890000, 2914.310000, 2977.300000, 3082.920000, 3133.810000, 3210.980000
3160.020000, 3173.090000, 3126.800000, 3185.400000, 3152.620000, 3127.190000, 3067.320000, 3035.490000, 3049.390000, 2903.510000, 2961.590000, 2859.020000, 2788.010000, 2740.010000, 2652.610000, 2537.900000, 2494.720000, 2494.020000, 2611.890000, 2518.920000, 2463.820000, 2457.810000, 2437.210000, 2413.020000, 2314.610000, 2236.190000, 2161.190000, 2064.590000, 2018.690000, 1935.410000, 1874.000000, 1885.920000, 1947.810000, 2140.590000, 2302.990000, 2521.200000, 2694.300000, 2850.080000, 3054.780000, 3245.590000, 3009.410000, 2760.610000, 2609.210000, 2464.920000, 2420.690000, 2335.610000, 2288.310000, 2242.110000, 2123.800000, 2016.020000, 1848.710000, 1730.310000, 1604.990000, 1410.990000, 1385.080000, 1257.000000, 1198.480000, 1250.910000, 1354.400000, 1515.700000, 1629.410000, 1696.780000, 1912.090000, 2043.190000, 2167.200000, 2245.000000, 2330.220000, 2566.700000, 2366.820000, 2256.180000, 2232.380000, 2367.390000, 2494.020000, 2598.610000, 2663.700000, 2740.890000, 2836.490000, 2985.090000, 3016.690000, 3045.790000, 3112.110000, 3231.600000, 3289.590000, 3142.320000, 3255.800000, 3246.510000, 3181.280000, 3078.890000, 2992.620000, 2960.800000, 2956.700000, 2947.620000, 2935.920000, 2943.210000, 2980.000000, 3000.080000, 3041.890000, 3094.620000, 3195.620000, 3277.020000
3133.690000, 3150.290000, 3184.400000, 3241.200000, 3070.390000, 2997.400000, 2882.910000, 2808.610000, 2818.780000, 2746.500000, 2750.010000, 2664.310000, 2567.000000, 2582.210000, 2455.580000, 2357.480000, 2324.080000, 2333.810000, 2434.320000, 2333.200000, 2268.720000, 2311.020000, 2287.780000, 2349.280000, 2338.980000, 2314.700000, 2214.010000, 2107.590000, 2037.890000, 1954.520000, 1855.980000, 1913.890000, 1981.080000, 2152.210000, 2324.080000, 2467.410000, 2650.680000, 2833.600000, 3072.010000, 3259.610000, 3062.490000, 2835.920000, 2627.100000, 2515.190000, 2426.910000, 2358.880000, 2276.210000, 2206.780000, 2122.710000, 2037.580000, 1955.000000, 1874.310000, 1754.510000, 1614.810000, 1418.480000, 1251.520000, 1198.090000, 1261.210000, 1431.280000, 1627.790000, 1803.120000, 1929.320000, 1949.300000, 2078.480000, 2203.410000, 2279.810000, 2348.580000, 2477.190000, 2466.320000, 2339.200000, 2316.580000, 2423.890000, 2530.880000, 2563.100000, 2605.620000, 2694.300000, 2783.410000, 2953.480000, 3105.100000, 3147.090000, 3191.500000, 3257.990000, 3307.790000, 3316.200000, 3318.220000, 3284.200000, 3178.080000, 3084.020000, 2992.490000, 2973.410000, 2968.780000, 2966.080000, 2970.490000, 3018.110000, 3057.520000, 3093.400000, 3123.380000, 3160.790000, 3253.490000, 3352.610000
3110.320000, 3112.290000, 3150.210000, 3058.590000, 2876.820000, 2727.300000, 2664.490000, 2606.320000, 2554.910000, 2506.290000, 2477.800000, 2499.110000, 2411.610000, 2360.900000, 2320.000000, 2253.420000, 2169.780000, 2158.700000, 2184.290000, 2189.690000, 2092.510000, 2094.000000, 2095.010000, 2129.420000, 2110.080000, 2151.810000, 2176.580000, 2026.890000, 1930.810000, 1836.700000, 1855.720000, 1930.590000, 2015.010000, 2155.890000, 2282.700000, 2449.490000, 2643.710000, 2854.200000, 3072.400000, 3070.690000, 2918.200000, 2873.880000, 2715.990000, 2669.700000, 2494.200000, 2392.990000, 2304.090000, 2263.280000, 2190.390000, 2124.200000, 2101.710000, 2029.610000, 1695.990000, 1530.080000, 1439.080000, 1245.210000, 1178.320000, 1220.010000, 1428.780000, 1693.710000, 1761.080000, 1943.520000, 2078.390000, 2152.690000, 2260.700000, 2335.210000, 2407.580000, 2504.980000, 2611.710000, 2438.310000, 2381.110000, 2443.000000, 2489.420000, 2518.790000, 2588.390000, 2671.900000, 2778.020000, 2887.380000, 3026.990000, 3180.800000, 3228.890000, 3269.080000, 3363.890000, 3293.500000, 3266.890000, 3248.480000, 3184.310000, 3087.090000, 3003.920000, 2985.720000, 2980.790000, 2982.620000, 2997.590000, 3061.880000, 3108.020000, 3146.690000, 3194.400000, 3238.390000, 3311.590000, 3413.980000
3068.280000, 3072.710000, 3076.080000, 2966.900000, 2848.500000, 2690.390000, 2601.410000, 2549.600000, 2499.190000, 2440.720000, 2393.510000, 2350.600000, 2281.300000, 2244.920000, 2187.320000, 2126.000000, 2069.410000, 2038.680000, 2000.110000, 2016.590000, 1928.000000, 1866.590000, 1814.390000, 1919.190000, 1964.600000, 2006.290000, 2043.280000, 1973.190000, 1815.000000, 1799.700000, 1940.010000, 2053.320000, 2118.810000, 2260.080000, 2402.800000, 2549.820000, 2689.610000, 2877.610000, 2976.010000, 2816.280000, 2731.600000, 2683.690000, 2671.110000, 2711.780000, 2571.910000, 2414.510000, 2354.100000, 2302.210000, 2308.610000, 2218.400000, 2048.590000, 1937.600000, 1844.980000, 1735.620000, 1446.100000, 1178.800000, 1171.700000, 1248.580000, 1360.010000, 1557.780000, 1721.020000, 1925.020000, 2089.480000, 2198.980000, 2287.610000, 2380.410000, 2459.090000, 2545.790000, 2678.510000, 2525.890000, 2433.310000, 2406.400000, 2454.310000, 2573.890000, 2649.500000, 2720.990000, 2817.600000, 2937.790000, 3103.000000, 3215.520000, 3282.490000, 3336.980000, 3281.490000, 3231.690000, 3198.200000, 3165.110000, 3140.610000, 3058.290000, 3022.300000, 2998.420000, 2994.490000, 2998.200000, 3028.710000, 3093.400000, 3125.520000, 3161.010000, 3224.200000, 3300.500000, 3344.320000, 3422.800000
3057.700000, 3062.320000, 3052.020000, 2933.710000, 2815.320000, 2655.280000, 2553.020000, 2496.210000, 2436.990000, 2411.790000, 2368.480000, 2319.610000, 2267.710000, 2200.600000, 2147.210000, 2052.620000, 1978.410000, 1919.410000, 1865.490000, 1796.110000, 1703.180000, 1689.020000, 1672.410000, 1703.790000, 1859.620000, 1902.490000, 1916.910000, 1812.020000, 1814.120000, 1881.190000, 2104.390000, 2187.100000, 2287.220000, 2320.220000, 2443.700000, 2617.720000, 2778.810000, 2845.700000, 2686.190000, 2650.900000, 2576.690000, 2490.210000, 2517.600000, 2620.300000, 2545.390000, 2422.090000, 2400.480000, 2386.100000, 2297.300000, 2176.710000, 2062.000000, 1990.200000, 1831.700000, 1575.100000, 1375.920000, 1168.280000, 1157.190000, 1229.780000, 1335.900000, 1593.820000, 1794.090000, 1874.220000, 2093.300000, 2248.290000, 2316.410000, 2416.920000, 2497.090000, 2604.390000, 2698.020000, 2541.800000, 2411.920000, 2391.710000, 2427.790000, 2555.300000, 2688.510000, 2790.900000, 2894.920000, 2985.090000, 3067.580000, 3281.620000, 3354.690000, 3289.510000, 3212.490000, 3168.310000, 3127.280000, 3084.110000, 3087.300000, 3079.200000, 3064.500000, 3028.800000, 3013.780000, 3039.100000, 3063.890000, 3108.890000, 3147.610000, 3165.980000, 3226.690000, 3289.280000, 3341.310000, 3408.090000
3048.280000, 3050.880000, 3009.110000, 2868.620000, 2736.420000, 2611.580000, 2511.680000, 2472.500000, 2411.700000, 2383.780000, 2359.720000, 2346.610000, 2242.590000, 2165.310000, 2085.410000, 1952.200000, 1876.010000, 1801.720000, 1728.910000, 1647.820000, 1593.600000, 1608.410000, 1632.210000, 1723.910000, 1743.510000, 1742.410000, 1724.920000, 1887.720000, 1998.310000, 1983.410000, 2179.600000, 2353.490000, 2410.610000, 2450.190000, 2532.810000, 2650.590000, 2700.390000, 2632.180000, 2540.400000, 2428.490000, 2373.300000, 2331.620000, 2386.410000, 2368.610000, 2346.520000, 2245.090000, 2193.810000, 2253.510000, 2170.180000, 2095.880000, 2051.920000, 1949.480000, 1733.600000, 1594.910000, 1425.320000, 1180.380000, 1161.090000, 1205.190000, 1316.220000, 1606.310000, 1842.390000, 2067.610000, 2150.800000, 2295.890000, 2389.520000, 2467.280000, 2540.610000, 2628.590000, 2656.510000, 2553.280000, 2413.100000, 2417.620000, 2449.310000, 2586.510000, 2687.590000, 2779.290000, 2936.080000, 3023.090000, 3115.400000, 3296.700000, 3281.310000, 3192.990000, 3139.200000, 3105.320000, 3057.500000, 3044.390000, 3053.900000, 3105.800000, 3116.090000, 3052.110000, 3034.520000, 3082.490000, 3098.720000, 3125.000000, 3165.890000, 3183.700000, 3215.210000, 3258.990000, 3331.180000, 3401.590000
3030.100000, 3051.890000, 2997.800000, 2841.010000, 2749.220000, 2593.390000, 2502.390000, 2458.300000, 2409.110000, 2352.400000, 2294.320000, 2278.010000, 2182.320000, 2086.980000, 1972.490000, 1904.420000, 1823.110000, 1727.510000, 1577.200000, 1526.010000, 1497.820000, 1498.700000, 1552.700000, 1538.410000, 1600.000000, 1669.210000, 1828.590000, 1986.210000, 2121.920000, 2208.320000, 2209.590000, 2351.080000, 2501.300000, 2623.900000, 2667.290000, 2650.990000, 2492.790000, 2404.600000, 2365.020000, 2281.210000, 2228.000000, 2196.090000, 2224.800000, 2174.700000, 2124.290000, 2078.000000, 2081.420000, 2063.710000, 2019.390000, 1964.600000, 1914.500000, 1844.100000, 1735.880000, 1603.110000, 1335.680000, 1177.790000, 1159.690000, 1238.720000, 1329.280000, 1621.690000, 1850.980000, 2021.890000, 2151.420000, 2268.020000, 2391.580000, 2515.720000, 2566.920000, 2604.790000, 2684.780000, 2515.280000, 2424.980000, 2447.510000, 2487.710000, 2603.910000, 2757.280000, 2854.510000, 2970.090000, 3086.600000, 3166.290000, 3303.580000, 3199.610000, 3140.780000, 3087.480000, 3019.710000, 2991.180000, 2996.220000, 3022.780000, 3075.510000, 3162.710000, 3074.800000, 3069.090000, 3122.810000, 3133.680000, 3156.290000, 3177.720000, 3208.190000, 3222.720000, 3255.890000, 3327.910000, 3400.320000
2955.240000, 3030.980000, 3101.510000, 2824.090000, 2689.690000, 2604.390000, 2524.310000, 2469.910000, 2409.510000, 2355.680000, 2269.420000, 2196.480000, 2103.200000, 1947.680000, 1823.810000, 1737.190000, 1642.910000, 1558.490000, 1485.980000, 1446.180000, 1412.080000, 1433.520000, 1523.510000, 1705.020000, 1708.090000, 1818.810000, 1902.010000, 1972.710000, 2179.210000, 2362.920000, 2345.380000, 2431.600000, 2599.220000, 2715.510000, 2829.780000, 2678.210000, 2398.290000, 2236.410000, 2117.800000, 2133.580000, 2070.680000, 2043.280000, 2050.910000, 2040.610000, 1957.280000, 1940.410000, 1974.820000, 1952.500000, 1830.780000, 1841.690000, 1740.790000, 1664.080000, 1606.920000, 1505.490000, 1358.520000, 1197.300000, 1162.190000, 1252.310000, 1370.700000, 1571.200000, 1795.800000, 1957.110000, 2178.200000, 2319.390000, 2424.110000, 2551.790000, 2636.700000, 2634.420000, 2666.680000, 2618.810000, 2517.690000, 2488.800000, 2531.590000, 2611.710000, 2740.580000, 2852.880000, 2966.980000, 3086.780000, 3179.490000, 3231.910000, 3152.090000, 3094.410000, 3046.320000, 3000.910000, 2987.100000, 2987.410000, 2991.310000, 3014.720000, 3067.380000, 3096.320000, 3100.900000, 3171.790000, 3177.280000, 3188.980000, 3193.300000, 3234.200000, 3258.290000, 3285.180000, 3346.420000, 3420.000000
2902.890000, 3003.320000, 3104.400000, 2851.790000, 2772.710000, 2641.610000, 2639.990000, 2519.490000, 2382.820000, 2328.290000, 2241.580000, 2118.190000, 2003.700000, 1865.580000, 1764.110000, 1685.690000, 1597.320000, 1518.990000, 1417.210000, 1394.810000, 1418.610000, 1486.690000, 1592.590000, 1828.020000, 1879.300000, 1884.780000, 2040.920000, 2131.300000, 2191.480000, 2401.620000, 2534.000000, 2589.490000, 2662.780000, 2810.980000, 2620.610000, 2476.880000, 2400.000000, 2176.890000, 2021.590000, 1905.380000, 1904.590000, 1841.390000, 1831.390000, 1889.910000, 1811.580000, 1818.810000, 1842.700000, 1781.510000, 1757.710000, 1646.900000, 1586.710000, 1531.000000, 1435.490000, 1305.090000, 1204.620000, 1115.590000, 1152.590000, 1237.490000, 1335.510000, 1672.800000, 1747.490000, 1940.010000, 2091.190000, 2345.510000, 2569.200000, 2614.080000, 2688.290000, 2715.600000, 2720.420000, 2697.100000, 2664.880000, 2604.700000, 2567.090000, 2616.010000, 2704.600000, 2805.590000, 2924.420000, 3047.020000, 3229.980000, 3219.420000, 3163.710000, 3103.000000, 3038.520000, 2989.120000, 2984.910000, 2982.280000, 2980.480000, 2981.580000, 3006.190000, 3052.500000, 3160.000000, 3232.590000, 3215.910000, 3220.710000, 3220.580000, 3233.590000, 3285.090000, 3310.580000, 3345.500000, 3421.790000
2862.390000, 2919.990000, 3074.510000, 2947.080000, 2842.800000, 2734.010000, 2631.310000, 2556.220000, 2479.200000, 2406.620000, 2359.010000, 2169.480000, 2033.110000, 1917.610000, 1834.200000, 1727.680000, 1638.700000, 1549.410000, 1412.300000, 1310.920000, 1444.690000, 1563.000000, 1714.800000, 1893.020000, 2022.990000, 2038.680000, 2140.990000, 2312.420000, 2373.480000, 2437.700000, 2575.290000, 2736.900000, 2770.780000, 2775.390000, 2605.710000, 2483.190000, 2301.810000, 2138.010000, 1948.210000, 1820.700000, 1738.510000, 1702.390000, 1709.320000, 1727.510000, 1681.700000, 1690.380000, 1654.390000, 1612.310000, 1577.990000, 1457.800000, 1431.410000, 1290.710000, 1254.110000, 1202.600000, 1117.210000, 1104.200000, 1133.920000, 1198.920000, 1404.980000, 1808.910000, 1934.090000, 2065.290000, 2205.820000, 2343.800000, 2490.210000, 2692.500000, 2788.190000, 2764.910000, 2820.710000, 2702.580000, 2677.110000, 2625.300000, 2663.000000, 2663.610000, 2743.700000, 2847.320000, 2949.490000, 3186.590000, 3297.310000, 3252.990000, 3183.910000, 3113.910000, 3037.990000, 2988.200000, 2980.610000, 2958.780000, 2940.900000, 2917.410000, 2957.000000, 3031.590000, 3121.510000, 3268.680000, 3254.190000, 3246.680000, 3239.700000, 3257.900000, 3325.510000, 3346.810000, 3376.100000, 3427.380000
2823.110000, 2851.920000, 3004.500000, 2922.580000, 2812.210000, 2688.420000, 2567.490000, 2484.420000, 2373.920000, 2234.920000, 2149.180000, 2076.990000, 2009.790000, 1943.520000, 1902.010000, 1806.710000, 1679.680000, 1551.910000, 1361.100000, 1239.510000, 1451.090000, 1622.000000, 1817.410000, 1909.680000, 2128.100000, 2185.700000, 2263.900000, 2398.990000, 2485.210000, 2605.090000, 2645.110000, 2785.510000, 2725.280000, 2548.420000, 2507.780000, 2345.210000, 2235.710000, 2113.990000, 1958.420000, 1843.800000, 1682.800000, 1589.300000, 1544.200000, 1553.400000, 1537.880000, 1520.480000, 1485.200000, 1472.700000, 1398.580000, 1294.920000, 1260.110000, 1169.200000, 1097.320000, 1138.300000, 1087.100000, 1138.780000, 1176.480000, 1225.480000, 1407.480000, 1599.820000, 1853.620000, 1980.290000, 2100.000000, 2227.510000, 2412.400000, 2566.390000, 2749.000000, 2889.490000, 2798.790000, 2708.890000, 2673.300000, 2690.220000, 2733.610000, 2716.300000, 2821.410000, 2904.080000, 3013.620000, 3233.710000, 3357.410000, 3270.880000, 3191.410000, 3116.190000, 3028.090000, 2958.080000, 2941.120000, 2915.520000, 2899.300000, 2898.120000, 2943.300000, 3029.890000, 3108.500000, 3211.200000, 3278.810000, 3274.400000, 3257.810000, 3296.790000, 3347.290000, 3384.780000, 3414.110000, 3446.890000
2699.480000, 2750.710000, 2875.280000, 2873.880000, 2751.500000, 2670.580000, 2517.300000, 2396.800000, 2313.300000, 2210.290000, 2118.020000, 2044.420000, 1984.110000, 1904.590000, 1840.420000, 1772.310000, 1683.410000, 1560.980000, 1376.710000, 1273.310000, 1354.880000, 1600.610000, 1798.080000, 1988.800000, 2129.280000, 2297.690000, 2401.490000, 2454.400000, 2602.820000, 2698.020000, 2816.900000, 2714.280000, 2639.200000, 2457.420000, 2357.790000, 2337.890000, 2195.600000, 2096.500000, 1969.820000, 1881.800000, 1736.410000, 1578.610000, 1456.790000, 1386.790000, 1357.510000, 1364.300000, 1360.490000, 1267.780000, 1206.990000, 1152.900000, 1152.590000, 1124.490000, 1077.900000, 1065.180000, 1114.100000, 1168.900000, 1223.200000, 1281.900000, 1420.100000, 1569.180000, 1705.110000, 1818.990000, 1935.800000, 2150.890000, 2358.800000, 2566.700000, 2689.610000, 2811.290000, 2794.590000, 2738.000000, 2749.920000, 2764.600000, 2774.910000, 2790.290000, 2878.000000, 2968.690000, 3117.200000, 3297.490000, 3288.020000, 3247.510000, 3176.590000, 3097.390000, 3009.280000, 2967.420000, 2912.590000, 2884.620000, 2882.380000, 2892.510000, 2917.890000, 3035.080000, 3105.700000, 3206.010000, 3283.220000, 3299.320000, 3305.520000, 3339.780000, 3387.010000, 3445.320000, 3461.910000, 3482.110000
2619.030000, 2571.080000, 2632.620000, 2738.700000, 2720.510000, 2606.720000, 2482.580000, 2328.290000, 2252.020000, 2153.920000, 2067.000000, 1990.420000, 1906.300000, 1820.610000, 1760.820000, 1674.210000, 1544.020000, 1492.690000, 1251.920000, 1202.600000, 1331.520000, 1605.300000, 1639.310000, 1859.400000, 2080.410000, 2285.680000, 2488.280000, 2609.210000, 2702.580000, 2804.010000, 2722.920000, 2587.910000, 2475.220000, 2346.390000, 2272.180000, 2213.790000, 2207.090000, 2098.910000, 2058.800000, 1956.100000, 1778.090000, 1615.290000, 1479.980000, 1352.510000, 1285.890000, 1250.510000, 1196.600000, 1135.800000, 1093.720000, 1074.520000, 1079.080000, 1073.380000, 1057.210000, 1075.090000, 1110.820000, 1164.990000, 1265.590000, 1349.490000, 1411.380000, 1475.600000, 1592.810000, 1713.700000, 1849.010000, 2000.020000, 2245.700000, 2354.190000, 2526.280000, 2677.900000, 2774.600000, 2861.690000, 2899.390000, 2895.490000, 2841.180000, 2900.180000, 2969.090000, 3167.700000, 3244.100000, 3272.280000, 3220.600000, 3177.120000, 3102.510000, 3042.420000, 2985.700000, 2916.000000, 2876.380000, 2868.010000, 2874.100000, 2873.880000, 2907.420000, 3016.620000, 3105.400000, 3202.690000, 3287.320000, 3341.920000, 3352.000000, 3389.890000, 3429.080000, 3488.310000, 3506.210000, 3517.380000
2537.860000, 2501.910000, 2462.990000, 2492.090000, 2527.290000, 2622.010000, 2470.480000, 2277.400000, 2190.210000, 2114.380000, 2028.120000, 1947.200000, 1869.790000, 1762.090000, 1672.980000, 1546.300000, 1456.400000, 1299.080000, 1248.980000, 1177.400000, 1308.810000, 1602.320000, 1830.300000, 1953.690000, 1996.910000, 2178.110000, 2340.210000, 2514.490000, 2720.900000, 2580.810000, 2527.420000, 2435.200000, 2295.280000, 2228.220000, 2216.600000, 2157.990000, 2103.600000, 2079.880000, 2092.420000, 2033.200000, 1866.020000, 1678.280000, 1622.700000, 1451.490000, 1329.020000, 1183.890000, 1182.920000, 1121.120000, 1083.600000, 1064.220000, 1060.320000, 1053.920000, 1056.420000, 1068.210000, 1162.490000, 1189.320000, 1281.680000, 1470.120000, 1572.820000, 1645.890000, 1669.210000, 1712.910000, 1803.690000, 1946.590000, 2083.520000, 2272.880000, 2389.000000, 2536.100000, 2724.320000, 2840.920000, 2976.100000, 2951.110000, 2906.490000, 3056.010000, 3159.720000, 3133.590000, 3119.780000, 3171.680000, 3163.790000, 3097.610000, 3025.190000, 2976.100000, 2922.890000, 2880.020000, 2852.400000, 2845.700000, 2856.300000, 2857.000000, 2901.310000, 2997.290000, 3081.090000, 3158.690000, 3306.700000, 3402.280000, 3404.510000, 3428.210000, 3459.200000, 3489.010000, 3386.920000, 3334.590000
2441.290000, 2403.810000, 2354.500000, 2322.020000, 2362.210000, 2439.100000, 2339.900000, 2269.680000, 2183.200000, 2074.800000, 1998.790000, 1909.420000, 1807.810000, 1637.780000, 1536.920000, 1397.790000, 1287.680000, 1160.000000, 1097.710000, 1141.890000, 1283.610000, 1501.810000, 1683.590000, 1800.880000, 2064.500000, 2220.500000, 2359.320000, 2535.880000, 2724.980000, 2537.900000, 2385.800000, 2290.200000, 2156.810000, 2111.400000, 2081.990000, 2044.510000, 1984.590000, 1958.600000, 1959.910000, 1913.800000, 1853.790000, 1688.320000, 1535.390000, 1385.300000, 1223.910000, 1136.980000, 1127.600000, 1097.710000, 1076.580000, 1056.680000, 1045.590000, 1042.480000, 1058.920000, 1083.510000, 1177.700000, 1246.310000, 1341.380000, 1573.610000, 1694.720000, 1764.020000, 1829.200000, 1885.220000, 1882.280000, 1953.690000, 2097.810000, 2214.010000, 2348.320000, 2470.790000, 2618.420000, 2754.220000, 2959.880000, 2997.490000, 3024.180000, 3185.710000, 3129.520000, 3060.780000, 3010.600000, 3037.990000, 3130.610000, 3055.390000, 2996.480000, 2912.100000, 2855.600000, 2808.000000, 2807.120000, 2816.020000, 2832.810000, 2846.310000, 2896.680000, 2975.290000, 3042.110000, 3127.180000, 3185.400000, 3140.490000, 3129.100000, 3248.080000, 3402.110000, 3360.510000, 3211.980000, 3008.590000
2280.120000, 2265.690000, 2255.000000, 2210.590000, 2352.090000, 2472.190000, 2393.910000, 2331.790000, 2231.420000, 2110.300000, 2020.010000, 1907.490000, 1794.400000, 1631.290000, 1501.500000, 1394.290000, 1244.810000, 1106.210000, 1044.980000, 1098.590000, 1292.110000, 1451.620000, 1574.880000, 1679.120000, 1855.020000, 2064.190000, 2315.180000, 2486.090000, 2547.800000, 2421.780000, 2333.810000, 2195.210000, 2054.680000, 1978.720000, 1945.400000, 1895.080000, 1840.420000, 1803.820000, 1791.990000, 1752.400000, 1688.010000, 1572.200000, 1448.990000, 1287.900000, 1132.600000, 1081.180000, 1075.090000, 1052.610000, 1052.910000, 1050.110000, 1020.690000, 1058.920000, 1076.580000, 1119.580000, 1182.310000, 1312.320000, 1424.710000, 1566.420000, 1731.320000, 1860.020000, 1929.710000, 1992.000000, 2029.780000, 2005.100000, 2109.510000, 2233.080000, 2350.910000, 2425.900000, 2507.700000, 2635.910000, 2860.910000, 3056.010000, 3155.900000, 3129.690000, 3077.880000, 2994.990000, 2939.500000, 2950.980000, 3050.310000, 3001.000000, 2942.610000, 2870.420000, 2810.890000, 2778.100000, 2778.590000, 2798.090000, 2816.900000, 2833.900000, 2902.010000, 2958.000000, 3027.620000, 3075.200000, 3056.080000, 3035.610000, 3058.700000, 3103.000000, 3331.710000, 3321.800000, 3059.400000, 2923.220000
2157.390000, 2124.810000, 2080.500000, 2081.990000, 2206.610000, 2393.910000, 2581.380000, 2589.490000, 2433.880000, 2251.010000, 2080.500000, 1999.890000, 1919.410000, 1868.520000, 1632.690000, 1372.900000, 1253.190000, 1097.100000, 1041.380000, 1072.900000, 1212.990000, 1453.990000, 1682.180000, 1850.020000, 1963.510000, 2088.520000, 2240.010000, 2461.720000, 2397.280000, 2301.280000, 2221.900000, 2078.610000, 1933.610000, 1825.690000, 1815.090000, 1756.790000, 1727.200000, 1666.890000, 1623.800000, 1610.910000, 1515.880000, 1423.000000, 1359.920000, 1205.410000, 1041.780000, 1031.080000, 1022.400000, 1014.300000, 988.080000, 998.820000, 1054.620000, 1088.200000, 1146.410000, 1195.500000, 1286.810000, 1352.380000, 1532.890000, 1614.110000, 1729.920000, 1927.390000, 2069.710000, 2135.900000, 2167.420000, 2143.620000, 2169.700000, 2251.010000, 2361.600000, 2421.920000, 2502.000000, 2612.200000, 2765.390000, 2987.190000, 3045.490000, 2994.600000, 2968.210000, 2887.910000, 2872.700000, 2900.710000, 2961.020000, 2956.290000, 2893.080000, 2827.110000, 2753.300000, 2754.220000, 2766.090000, 2777.890000, 2771.180000, 2806.900000, 2880.180000, 2935.000000, 3008.900000, 3030.200000, 3022.910000, 3024.090000, 3033.120000, 3059.480000, 3262.220000, 3240.790000, 3058.390000, 2855.000000
2109.730000, 2080.010000, 2038.990000, 1948.380000, 2005.500000, 2268.190000, 2460.800000, 2760.400000, 2544.690000, 2373.920000, 2211.690000, 2148.480000, 2064.720000, 1955.790000, 1859.620000, 1604.600000, 1220.010000, 1082.280000, 1017.010000, 1082.190000, 1170.600000, 1410.900000, 1559.010000, 1723.910000, 1881.890000, 2064.410000, 2312.990000, 2428.620000, 2465.790000, 2335.080000, 2236.110000, 2103.820000, 1851.380000, 1696.910000, 1691.690000, 1619.110000, 1570.100000, 1512.810000, 1488.000000, 1440.090000, 1415.410000, 1368.380000, 1203.790000, 1067.420000, 991.110000, 992.510000, 949.290000, 1002.200000, 1033.320000, 1126.900000, 1107.400000, 1124.320000, 1182.310000, 1234.820000, 1365.710000, 1473.800000, 1559.320000, 1701.690000, 1836.080000, 1906.790000, 2048.190000, 2229.090000, 2340.910000, 2304.490000, 2295.500000, 2374.010000, 2450.100000, 2526.810000, 2673.210000, 2751.500000, 2892.200000, 3049.300000, 2963.520000, 2881.110000, 2809.010000, 2799.410000, 2824.000000, 2834.390000, 2933.800000, 2962.820000, 2862.000000, 2784.500000, 2741.420000, 2746.410000, 2754.390000, 2759.390000, 2743.910000, 2756.580000, 2816.590000, 2879.400000, 2958.920000, 3002.390000, 3009.110000, 3023.080000, 3035.220000, 3071.180000, 3260.610000, 3193.220000, 3081.090000, 2913.490000
2049.690000, 2026.320000, 1991.210000, 1894.120000, 1970.300000, 2182.980000, 2415.300000, 2679.390000, 2519.710000, 2272.010000, 2134.190000, 2076.290000, 2013.780000, 1956.100000, 1916.300000, 1540.510000, 1149.300000, 1027.180000, 1011.010000, 1051.510000, 1155.790000, 1334.590000, 1527.010000, 1695.200000, 1861.990000, 2023.210000, 2178.680000, 2341.790000, 2387.110000, 2210.200000, 2034.210000, 1933.300000, 1837.480000, 1637.690000, 1544.110000, 1458.590000, 1392.010000, 1355.710000, 1306.090000, 1270.720000, 1296.100000, 1280.710000, 1219.300000, 1007.280000, 955.380000, 961.300000, 939.690000, 1117.920000, 1221.320000, 1217.200000, 1219.080000, 1194.800000, 1284.620000, 1319.420000, 1415.280000, 1500.890000, 1660.490000, 1791.110000, 1879.610000, 1952.680000, 2056.520000, 2186.000000, 2262.580000, 2454.400000, 2461.320000, 2447.290000, 2673.300000, 2705.210000, 2786.080000, 3033.080000, 2919.120000, 2867.220000, 2888.700000, 2784.810000, 2693.900000, 2701.220000, 2770.610000, 2794.190000, 2942.300000, 2974.080000, 2860.690000, 2735.980000, 2709.990000, 2720.900000, 2714.810000, 2714.200000, 2687.110000, 2716.910000, 2804.720000, 2871.410000, 2928.410000, 2972.100000, 3002.000000, 3017.100000, 3060.090000, 3102.610000, 3286.400000, 3219.580000, 2996.980000, 2846.400000
1969.630000, 1945.490000, 1936.290000, 1863.700000, 1898.810000, 2003.790000, 2333.590000, 2706.480000, 2576.300000, 2360.280000, 2204.900000, 2066.510000, 1997.780000, 1939.700000, 1843.880000, 1269.190000, 1116.600000, 972.610000, 972.000000, 996.190000, 1184.020000, 1296.890000, 1479.410000, 1623.010000, 1765.990000, 1920.110000, 2102.500000, 2245.180000, 2356.690000, 2174.700000, 1996.290000, 1847.390000, 1671.800000, 1488.620000, 1362.200000, 1300.920000, 1237.710000, 1186.690000, 1158.290000, 1140.400000, 1165.080000, 1156.710000, 1124.710000, 957.400000, 927.590000, 918.690000, 948.280000, 1186.910000, 1311.620000, 1357.600000, 1327.400000, 1330.110000, 1340.500000, 1452.010000, 1491.990000, 1569.090000, 1614.110000, 1783.790000, 1940.490000, 1990.110000, 2094.700000, 2214.580000, 2264.680000, 2402.720000, 2616.320000, 2617.720000, 2790.990000, 2934.200000, 2953.790000, 2968.690000, 2880.890000, 2782.090000, 2747.510000, 2695.300000, 2635.910000, 2632.710000, 2659.400000, 2753.690000, 2805.020000, 2848.980000, 2726.990000, 2632.800000, 2646.390000, 2659.710000, 2638.490000, 2636.790000, 2648.400000, 2677.510000, 2785.820000, 2853.210000, 2902.880000, 2967.210000, 2993.400000, 3025.790000, 3101.600000, 3162.310000, 3301.420000, 3154.980000, 2963.500000, 2872.720000
1889.740000, 1844.890000, 1861.680000, 1853.620000, 1814.690000, 1938.610000, 2205.110000, 2477.320000, 2665.100000, 2440.810000, 2290.500000, 2105.090000, 2006.990000, 1918.620000, 1807.110000, 1241.000000, 1046.200000, 938.510000, 920.010000, 970.680000, 1149.390000, 1240.080000, 1365.090000, 1535.780000, 1680.210000, 1872.680000, 2021.100000, 2132.000000, 2262.320000, 2048.020000, 1869.000000, 1726.890000, 1620.820000, 1450.310000, 1325.380000, 1225.000000, 1221.410000, 1132.510000, 1014.510000, 990.710000, 975.020000, 952.010000, 980.890000, 910.410000, 891.390000, 938.110000, 1027.490000, 1291.190000, 1459.380000, 1491.990000, 1418.000000, 1448.200000, 1445.790000, 1539.110000, 1668.110000, 1724.920000, 1789.090000, 1811.800000, 1915.420000, 2012.200000, 2099.520000, 2270.910000, 2308.780000, 2395.000000, 2535.400000, 2739.880000, 2936.610000, 3096.990000, 3027.120000, 2928.100000, 2849.600000, 2763.820000, 2717.610000, 2673.610000, 2619.120000, 2608.290000, 2600.100000, 2638.490000, 2635.690000, 2698.280000, 2552.580000, 2522.120000, 2572.400000, 2602.200000, 2611.710000, 2626.620000, 2639.590000, 2657.300000, 2733.180000, 2825.010000, 2882.500000, 2975.110000, 3020.680000, 3085.890000, 3139.180000, 3216.220000, 3295.700000, 3088.810000, 2984.190000, 2903.620000
1818.160000, 1756.310000, 1772.000000, 1817.580000, 1750.780000, 1889.600000, 2174.520000, 2370.280000, 2645.420000, 2513.790000, 2354.020000, 2267.620000, 2006.680000, 1852.210000, 1607.800000, 1158.680000, 1004.780000, 900.500000, 898.490000, 949.600000, 1071.280000, 1185.290000, 1289.390000, 1475.120000, 1639.880000, 1788.480000, 1901.310000, 1993.090000, 2170.090000, 1990.810000, 1833.710000, 1672.580000, 1543.490000, 1419.400000, 1305.390000, 1186.910000, 1088.200000, 1035.200000, 958.710000, 922.110000, 887.790000, 861.100000, 861.010000, 869.690000, 932.280000, 1010.920000, 1195.900000, 1246.700000, 1531.220000, 1558.880000, 1508.300000, 1522.280000, 1529.120000, 1620.680000, 1774.190000, 1795.190000, 1942.420000, 1967.010000, 1983.320000, 2049.990000, 2106.800000, 2259.290000, 2363.310000, 2437.910000, 2535.790000, 2754.700000, 2924.900000, 3109.090000, 3010.510000, 2909.600000, 2820.180000, 2769.820000, 2705.910000, 2633.190000, 2602.420000, 2593.610000, 2568.580000, 2523.300000, 2505.290000, 2460.490000, 2437.610000, 2467.410000, 2540.880000, 2575.810000, 2599.480000, 2618.420000, 2635.300000, 2655.110000, 2701.190000, 2804.110000, 2935.220000, 3017.710000, 3064.980000, 3144.290000, 3322.020000, 3201.680000, 3031.420000, 2942.510000, 2838.980000, 2781.580000
1717.540000, 1630.110000, 1724.480000, 1765.600000, 1704.320000, 1882.720000, 2144.710000, 2375.490000, 2550.080000, 2655.420000, 2538.690000, 2407.100000, 2191.790000, 1796.410000, 1548.710000, 1341.690000, 993.910000, 893.180000, 884.680000, 897.300000, 1074.520000, 1145.010000, 1243.020000, 1367.110000, 1534.420000, 1700.810000, 1836.080000, 1935.410000, 2114.690000, 2011.200000, 1811.580000, 1675.700000, 1530.690000, 1414.410000, 1271.680000, 1185.820000, 1068.690000, 934.610000, 896.690000, 887.090000, 830.900000, 882.400000, 891.690000, 932.720000, 1028.500000, 1101.300000, 1251.780000, 1436.980000, 1522.410000, 1579.700000, 1580.800000, 1611.000000, 1640.500000, 1699.190000, 1794.790000, 1943.210000, 2011.810000, 2081.680000, 2109.690000, 2114.690000, 2171.320000, 2272.620000, 2395.610000, 2471.620000, 2575.420000, 2776.610000, 2976.800000, 3068.190000, 2997.890000, 2912.500000, 2806.200000, 2760.090000, 2691.400000, 2628.410000, 2593.000000, 2567.310000, 2527.200000, 2470.790000, 2427.000000, 2396.890000, 2409.380000, 2449.310000, 2517.600000, 2558.980000, 2586.820000, 2595.890000, 2607.420000, 2674.480000, 2761.510000, 2868.920000, 2999.600000, 3132.810000, 3133.110000, 3284.610000, 3157.120000, 3032.900000, 2967.610000, 2881.190000, 2818.900000, 2742.610000
1629.760000, 1546.690000, 1727.290000, 1704.800000, 1717.510000, 1904.510000, 2111.400000, 2464.780000, 2582.210000, 2602.990000, 2637.790000, 2368.610000, 2020.010000, 1793.690000, 1529.290000, 1374.210000, 1074.390000, 870.610000, 870.610000, 879.420000, 943.200000, 1108.580000, 1219.610000, 1323.190000, 1409.010000, 1593.680000, 1715.720000, 1871.500000, 1992.790000, 1911.780000, 1803.690000, 1664.690000, 1517.190000, 1369.300000, 1250.600000, 1100.380000, 987.910000, 889.280000, 861.100000, 818.490000, 866.400000, 924.920000, 952.400000, 993.780000, 1095.520000, 1240.690000, 1415.810000, 1560.810000, 1661.190000, 1728.520000, 1711.820000, 1735.400000, 1736.890000, 1706.510000, 1801.100000, 1929.100000, 2048.800000, 2177.020000, 2204.900000, 2205.820000, 2269.680000, 2337.100000, 2441.290000, 2567.700000, 2735.100000, 2837.590000, 2987.100000, 2994.900000, 2962.380000, 2901.190000, 2818.520000, 2749.000000, 2700.300000, 2647.000000, 2596.680000, 2529.390000, 2468.110000, 2422.090000, 2406.490000, 2377.200000, 2385.490000, 2418.500000, 2473.680000, 2524.700000, 2558.980000, 2593.220000, 2620.920000, 2683.600000, 2777.610000, 2936.880000, 3068.300000, 3208.490000, 3205.310000, 3362.920000, 3165.500000, 3027.400000, 2953.200000, 2910.910000, 2841.120000, 2747.890000
1515.360000, 1502.290000, 1569.490000, 1678.590000, 1819.690000, 2143.400000, 2258.900000, 2483.500000, 2323.290000, 2250.920000, 2541.580000, 2332.410000, 2146.820000, 1765.510000, 1512.420000, 1372.590000, 1023.190000, 862.190000, 862.020000, 863.420000, 898.880000, 1056.420000, 1172.100000, 1254.980000, 1395.510000, 1516.320000, 1629.580000, 1793.210000, 1840.120000, 1748.900000, 1642.380000, 1582.810000, 1441.580000, 1293.910000, 1166.220000, 1012.980000, 924.610000, 807.710000, 831.290000, 977.780000, 1037.790000, 1035.120000, 1059.180000, 1080.000000, 1192.300000, 1292.200000, 1509.000000, 1643.920000, 1811.010000, 1897.010000, 1882.190000, 1857.690000, 1811.400000, 1778.310000, 1832.010000, 1974.990000, 2033.510000, 2114.510000, 2228.480000, 2251.710000, 2293.790000, 2426.210000, 2572.090000, 2686.190000, 2819.790000, 2916.310000, 2998.890000, 2924.680000, 2774.380000, 2711.700000, 2729.100000, 2689.610000, 2617.020000, 2510.110000, 2591.590000, 2451.810000, 2388.820000, 2355.990000, 2331.790000, 2324.600000, 2348.890000, 2378.300000, 2445.010000, 2460.710000, 2483.720000, 2530.880000, 2652.300000, 2688.510000, 2753.690000, 2846.620000, 2941.990000, 3160.310000, 3311.590000, 3224.900000, 3097.980000, 3023.080000, 2972.710000, 2892.400000, 2819.120000, 2714.800000
1430.340000, 1496.680000, 1627.920000, 1795.320000, 1904.990000, 2099.700000, 2299.490000, 2471.400000, 2118.020000, 2264.680000, 2469.910000, 2445.800000, 2118.110000, 1694.110000, 1486.290000, 1369.300000, 962.480000, 853.290000, 853.510000, 851.720000, 851.890000, 976.120000, 1106.080000, 1213.610000, 1341.290000, 1432.510000, 1546.300000, 1722.820000, 1767.920000, 1639.310000, 1577.600000, 1489.180000, 1292.510000, 1096.000000, 969.410000, 876.790000, 838.000000, 777.810000, 969.980000, 1119.100000, 1163.990000, 1158.590000, 1203.220000, 1223.290000, 1285.710000, 1371.320000, 1528.020000, 1727.810000, 1920.900000, 1999.710000, 2051.700000, 1979.110000, 1915.510000, 1869.790000, 1908.190000, 1978.190000, 2100.490000, 2153.610000, 2233.610000, 2297.120000, 2338.410000, 2419.110000, 2547.190000, 2737.690000, 2802.390000, 2811.990000, 2824.920000, 2799.320000, 2715.120000, 2609.780000, 2519.310000, 2450.800000, 2409.290000, 2417.880000, 2467.500000, 2417.490000, 2252.280000, 2209.980000, 2191.700000, 2205.600000, 2215.990000, 2302.210000, 2364.800000, 2426.210000, 2434.100000, 2489.990000, 2617.020000, 2706.480000, 2777.390000, 2851.590000, 2951.410000, 3050.710000, 3346.420000, 3103.090000, 2989.300000, 2911.080000, 2822.090000, 2771.900000, 2726.590000, 2615.680000
1370.090000, 1483.650000, 1628.780000, 1759.220000, 1964.020000, 2166.080000, 2236.670000, 2150.050000, 2076.910000, 2292.800000, 2599.660000, 2337.260000, 2079.070000, 1667.220000, 1426.980000, 1314.700000, 1147.690000, 848.590000, 846.210000, 844.090000, 839.400000, 909.530000, 1031.260000, 1155.030000, 1272.030000, 1363.440000, 1482.630000, 1727.790000, 1717.490000, 1620.090000, 1550.430000, 1315.440000, 1160.480000, 1013.320000, 889.510000, 804.130000, 754.210000, 847.260000, 993.290000, 1138.100000, 1293.260000, 1301.120000, 1326.940000, 1348.430000, 1369.950000, 1494.570000, 1618.060000, 1740.030000, 1893.800000, 1998.700000, 2101.550000, 2097.860000, 2062.320000, 2013.860000, 2000.590000, 1986.190000, 2123.740000, 2251.430000, 2243.160000, 2319.320000, 2389.170000, 2419.960000, 2565.570000, 2625.870000, 2582.070000, 2606.660000, 2621.680000, 2599.700000, 2574.430000, 2562.280000, 2432.140000, 2357.670000, 2307.340000, 2318.020000, 2325.750000, 2286.980000, 2179.090000, 2003.060000, 1951.610000, 2034.850000, 2100.040000, 2150.950000, 2315.450000, 2430.900000, 2501.930000, 2554.990000, 2679.800000, 2780.570000, 2853.770000, 2914.380000, 2998.450000, 3063.970000, 3253.910000, 3123.770000, 2989.620000, 2861.680000, 2781.550000, 2708.930000, 2647.020000, 2570.310000
1344.340000, 1461.380000, 1538.390000, 1674.200000, 1861.080000, 1948.010000, 1964.310000, 2028.980000, 2142.010000, 2340.200000, 2588.910000, 2588.500000, 2322.810000, 1862.390000, 1719.520000, 1464.200000, 1157.880000, 924.400000, 839.310000, 836.620000, 833.310000, 839.390000, 951.800000, 1073.480000, 1176.910000, 1250.810000, 1407.810000, 1656.800000, 1684.200000, 1602.620000, 1442.520000, 1218.520000, 1104.600000, 935.590000, 832.080000, 743.400000, 785.010000, 971.120000, 1070.990000, 1174.010000, 1387.310000, 1440.520000, 1462.890000, 1477.510000, 1510.220000, 1624.590000, 1671.300000, 1770.190000, 1842.790000, 2004.400000, 2104.320000, 2135.720000, 2147.520000, 2073.490000, 2083.290000, 2087.290000, 2136.980000, 2295.000000, 2352.610000, 2419.990000, 2514.880000, 2527.290000, 2527.910000, 2465.510000, 2447.390000, 2427.010000, 2426.890000, 2428.110000, 2406.310000, 2368.500000, 2372.090000, 2241.920000, 2217.580000, 2252.780000, 2205.780000, 2157.810000, 2000.610000, 1886.600000, 1909.100000, 1951.480000, 1957.610000, 2092.110000, 2266.790000, 2485.320000, 2547.380000, 2641.010000, 2762.610000, 2829.120000, 2917.690000, 2974.200000, 3048.110000, 3120.290000, 3215.900000, 3130.680000, 2989.690000, 2795.880000, 2764.980000, 2719.410000, 2637.200000, 2573.590000
1329.850000, 1435.410000, 1473.800000, 1567.380000, 1742.710000, 1815.390000, 1918.820000, 2073.280000, 2316.520000, 2348.700000, 2375.320000, 2400.710000, 2323.910000, 2020.200000, 1825.520000, 1608.910000, 1317.200000, 1055.800000, 839.110000, 830.210000, 826.980000, 830.080000, 865.610000, 998.800000, 1106.600000, 1159.720000, 1252.490000, 1463.510000, 1645.900000, 1513.120000, 1226.400000, 1053.310000, 936.980000, 844.900000, 762.380000, 749.320000, 852.910000, 1049.100000, 1170.780000, 1290.500000, 1457.710000, 1581.510000, 1605.800000, 1620.220000, 1709.390000, 1764.800000, 1811.310000, 1819.310000, 1852.390000, 1945.320000, 2087.490000, 2150.700000, 2263.680000, 2130.410000, 2103.010000, 2189.410000, 2245.510000, 2320.400000, 2421.290000, 2581.310000, 2654.320000, 2549.100000, 2476.210000, 2434.480000, 2347.180000, 2308.680000, 2283.200000, 2302.880000, 2285.120000, 2248.780000, 2210.810000, 2150.620000, 2132.820000, 2127.020000, 2101.910000, 2034.490000, 1898.890000, 1841.890000, 1870.520000, 1875.420000, 1903.710000, 2021.310000, 2274.300000, 2532.110000, 2632.110000, 2699.810000, 2780.000000, 2908.500000, 2996.980000, 3048.790000, 3098.600000, 3211.610000, 3328.320000, 3222.600000, 2866.920000, 2792.420000, 2780.890000, 2720.190000, 2625.810000, 2602.390000
1344.230000, 1351.910000, 1412.180000, 1484.080000, 1612.990000, 1719.600000, 1849.120000, 2021.390000, 2096.520000, 2052.580000, 2105.790000, 2297.410000, 2454.490000, 2193.090000, 1852.020000, 1654.720000, 1475.100000, 1197.410000, 1046.690000, 836.410000, 826.080000, 818.200000, 825.510000, 939.880000, 1024.480000, 1081.280000, 1159.600000, 1249.300000, 1492.620000, 1343.990000, 1041.310000, 938.900000, 860.790000, 701.380000, 749.110000, 853.190000, 1001.780000, 1095.410000, 1262.000000, 1408.710000, 1513.200000, 1718.420000, 1772.890000, 1774.190000, 1914.820000, 1910.610000, 1902.810000, 1876.600000, 1879.990000, 1936.500000, 2077.820000, 2158.700000, 2310.110000, 2218.400000, 2150.780000, 2193.000000, 2325.380000, 2378.010000, 2497.690000, 2653.710000, 2671.390000, 2626.190000, 2589.320000, 2426.190000, 2372.090000, 2376.420000, 2295.820000, 2277.280000, 2249.880000, 2211.010000, 2164.300000, 2130.080000, 2106.200000, 2078.390000, 2033.720000, 1908.080000, 1817.110000, 1820.290000, 1832.910000, 1834.300000, 1869.210000, 2108.690000, 2283.610000, 2505.820000, 2666.280000, 2816.990000, 2897.390000, 2917.110000, 3046.610000, 3129.500000, 3207.010000, 3298.700000, 3352.610000, 3205.190000, 2901.420000, 2822.400000, 2805.720000, 2769.810000, 2719.690000, 2731.490000
1383.280000, 1317.610000, 1343.700000, 1398.420000, 1508.790000, 1633.610000, 1727.200000, 1809.510000, 1871.010000, 2029.880000, 2143.190000, 2290.390000, 2415.700000, 2192.110000, 1973.000000, 1679.790000, 1487.510000, 1384.290000, 1196.300000, 1053.190000, 819.590000, 814.490000, 811.510000, 849.110000, 926.610000, 1030.400000, 1055.310000, 1137.100000, 1195.120000, 1075.200000, 972.910000, 865.610000, 722.080000, 818.200000, 852.500000, 954.090000, 1044.820000, 1204.020000, 1348.480000, 1480.290000, 1607.800000, 1769.990000, 1878.310000, 1974.800000, 2061.810000, 2056.300000, 2048.090000, 1972.390000, 1960.180000, 1963.200000, 2038.910000, 2160.010000, 2307.900000, 2278.790000, 2236.900000, 2239.310000, 2371.110000, 2427.420000, 2533.500000, 2719.200000, 2767.710000, 2690.990000, 2553.380000, 2487.110000, 2514.390000, 2490.790000, 2423.910000, 2396.710000, 2358.490000, 2283.490000, 2261.110000, 2119.590000, 2140.780000, 2109.220000, 2072.390000, 1881.300000, 1780.890000, 1795.180000, 1800.820000, 1799.510000, 1862.800000, 2089.210000, 2235.100000, 2348.000000, 2504.180000, 2566.490000, 2720.100000, 2910.010000, 2895.590000, 3005.680000, 3129.410000, 3240.000000, 3393.710000, 3138.790000, 2947.720000, 2850.610000, 2842.090000, 2972.010000, 2966.990000, 2991.100000
1332.930000, 1308.390000, 1313.690000, 1357.710000, 1449.790000, 1560.890000, 1626.510000, 1690.820000, 1739.490000, 1827.320000, 1970.720000, 2125.710000, 2229.100000, 2268.010000, 1964.510000, 1809.390000, 1644.390000, 1518.020000, 1432.190000, 1177.320000, 1024.480000, 818.610000, 808.610000, 806.400000, 840.990000, 930.280000, 975.000000, 1031.380000, 1059.390000, 978.300000, 921.220000, 817.710000, 678.680000, 705.220000, 873.200000, 924.810000, 1097.410000, 1274.210000, 1390.990000, 1547.410000, 1692.000000, 1799.180000, 1894.400000, 2023.510000, 2154.090000, 2208.520000, 2190.880000, 2138.900000, 2083.490000, 2142.090000, 2123.180000, 2227.300000, 2319.790000, 2299.820000, 2237.590000, 2270.300000, 2384.910000, 2460.980000, 2531.290000, 2598.710000, 2771.590000, 2705.400000, 2650.600000, 2631.210000, 2601.810000, 2563.390000, 2537.580000, 2495.890000, 2416.310000, 2343.020000, 2217.300000, 2169.120000, 2076.510000, 2019.710000, 1983.210000, 1788.480000, 1755.620000, 1777.010000, 1776.480000, 1777.300000, 1865.820000, 1972.100000, 2111.220000, 2235.590000, 2337.100000, 2482.580000, 2597.480000, 2687.720000, 2777.100000, 2866.920000, 3015.620000, 3102.020000, 3296.600000, 3142.490000, 2960.390000, 2875.220000, 2890.210000, 3050.610000, 3230.480000, 3172.610000
1404.350000, 1306.790000, 1299.200000, 1322.110000, 1376.900000, 1454.480000, 1527.410000, 1585.310000, 1693.020000, 1785.100000, 1833.810000, 1953.400000, 2065.410000, 2134.290000, 2163.400000, 1991.910000, 1796.410000, 1688.900000, 1526.920000, 1394.580000, 1225.090000, 1037.180000, 838.010000, 804.120000, 799.990000, 836.490000, 918.690000, 933.710000, 944.210000, 909.910000, 899.990000, 810.400000, 673.780000, 707.910000, 787.620000, 950.010000, 1140.000000, 1306.710000, 1497.800000, 1589.390000, 1704.900000, 1824.780000, 1926.900000, 2058.220000, 2204.680000, 2353.310000, 2355.880000, 2244.980000, 2189.290000, 2159.680000, 2176.710000, 2246.490000, 2367.800000, 2386.990000, 2288.390000, 2331.220000, 2474.780000, 2531.210000, 2607.690000, 2706.220000, 2825.610000, 2766.610000, 2680.700000, 2659.010000, 2624.720000, 2612.180000, 2720.300000, 2636.600000, 2511.080000, 2374.790000, 2272.090000, 2166.500000, 2082.590000, 1977.210000, 1858.390000, 1723.810000, 1740.710000, 1757.490000, 1749.610000, 1769.420000, 2058.100000, 2093.990000, 2101.420000, 2172.100000, 2276.790000, 2414.800000, 2557.390000, 2681.310000, 2810.510000, 2947.220000, 3044.010000, 3132.410000, 3249.390000, 3276.420000, 2976.790000, 2902.280000, 2969.320000, 3103.390000, 3299.200000, 3342.220000
1527.000000, 1376.410000, 1299.200000, 1299.690000, 1334.110000, 1408.020000, 1462.810000, 1536.800000, 1620.910000, 1682.280000, 1779.420000, 1898.400000, 1937.520000, 1942.090000, 1981.290000, 2022.410000, 2007.300000, 1810.820000, 1660.310000, 1538.390000, 1405.480000, 1196.300000, 1033.380000, 874.510000, 799.990000, 797.090000, 836.980000, 884.590000, 893.700000, 867.200000, 853.890000, 732.500000, 678.800000, 730.010000, 830.410000, 985.610000, 1168.090000, 1352.890000, 1561.910000, 1628.220000, 1770.890000, 1873.990000, 1983.420000, 2085.090000, 2215.010000, 2355.510000, 2445.590000, 2370.780000, 2245.880000, 2187.700000, 2203.090000, 2284.300000, 2392.790000, 2472.780000, 2398.510000, 2407.700000, 2519.700000, 2591.400000, 2762.480000, 2779.920000, 2881.710000, 2765.500000, 2712.220000, 2713.120000, 2674.700000, 2636.310000, 2521.090000, 2411.980000, 2360.900000, 2280.380000, 2208.110000, 2183.900000, 2119.920000, 1946.790000, 1804.690000, 1714.290000, 1727.810000, 1735.810000, 1718.420000, 1771.420000, 2028.090000, 2221.710000, 2237.100000, 2262.090000, 2313.010000, 2369.600000, 2463.880000, 2533.500000, 2651.010000, 2775.190000, 2984.490000, 3093.180000, 3253.810000, 3162.080000, 3060.180000, 3080.010000, 3177.980000, 3248.390000, 3333.510000, 3347.090000
1577.460000, 1458.120000, 1341.500000, 1305.200000, 1289.400000, 1334.600000, 1412.710000, 1509.810000, 1576.410000, 1610.210000, 1688.120000, 1788.690000, 1834.420000, 1793.100000, 1763.210000, 1884.680000, 1952.710000, 1946.380000, 1864.880000, 1725.890000, 1557.420000, 1418.710000, 1192.590000, 1046.900000, 894.190000, 810.810000, 796.890000, 854.990000, 872.710000, 850.500000, 773.410000, 685.580000, 724.080000, 778.510000, 883.820000, 1032.690000, 1237.580000, 1335.010000, 1615.680000, 1691.800000, 1824.620000, 1946.590000, 2054.990000, 2193.700000, 2275.810000, 2399.280000, 2528.800000, 2373.320000, 2252.900000, 2219.990000, 2261.890000, 2304.110000, 2424.520000, 2585.800000, 2545.910000, 2517.820000, 2588.990000, 2746.400000, 2808.420000, 2856.310000, 2788.000000, 2740.390000, 2623.610000, 2525.900000, 2404.720000, 2469.880000, 2284.180000, 2158.580000, 2100.320000, 2053.890000, 2028.490000, 2064.920000, 2046.420000, 2019.310000, 1912.290000, 1720.790000, 1709.800000, 1717.600000, 1715.800000, 1806.000000, 2011.380000, 2287.080000, 2343.510000, 2368.420000, 2385.890000, 2441.590000, 2472.700000, 2540.110000, 2590.090000, 2677.220000, 2800.390000, 2971.010000, 3245.380000, 3235.490000, 3193.300000, 3209.200000, 3246.200000, 3274.320000, 3386.780000, 3359.580000
1651.810000, 1536.880000, 1443.780000, 1331.090000, 1270.780000, 1280.910000, 1353.300000, 1437.980000, 1531.200000, 1576.410000, 1644.920000, 1720.500000, 1784.200000, 1681.790000, 1613.890000, 1688.610000, 1826.420000, 1865.290000, 1861.080000, 1748.100000, 1630.100000, 1514.220000, 1307.690000, 1133.010000, 1005.700000, 893.210000, 809.220000, 819.180000, 817.300000, 725.510000, 651.810000, 666.100000, 703.910000, 830.610000, 954.990000, 1131.580000, 1405.480000, 1534.100000, 1664.400000, 1781.380000, 1909.710000, 2018.410000, 2138.490000, 2246.980000, 2313.420000, 2328.610000, 2373.680000, 2384.010000, 2275.320000, 2269.600000, 2356.820000, 2456.700000, 2502.180000, 2511.820000, 2599.810000, 2634.190000, 2620.100000, 2571.720000, 2645.910000, 2679.310000, 2605.810000, 2535.210000, 2485.110000, 2325.990000, 2221.100000, 2219.990000, 2197.490000, 2064.510000, 1986.680000, 1934.210000, 1909.100000, 1909.710000, 1939.890000, 1946.790000, 1905.390000, 1822.780000, 1712.420000, 1690.080000, 1734.910000, 1824.700000, 2025.880000, 2232.410000, 2405.820000, 2559.590000, 2476.990000, 2496.990000, 2543.220000, 2596.790000, 2611.090000, 2643.310000, 2715.220000, 2883.280000, 3072.580000, 3272.910000, 3220.820000, 3167.910000, 3149.000000, 3143.990000, 3164.090000, 3214.990000
1730.010000, 1612.300000, 1469.590000, 1316.390000, 1288.790000, 1230.600000, 1264.900000, 1332.400000, 1433.900000, 1508.910000, 1584.690000, 1596.290000, 1741.410000, 1609.400000, 1453.910000, 1450.190000, 1534.510000, 1700.000000, 1708.700000, 1711.390000, 1620.590000, 1523.690000, 1342.890000, 1133.590000, 1008.800000, 903.580000, 833.880000, 730.990000, 732.010000, 645.480000, 642.380000, 649.000000, 731.110000, 907.010000, 1041.310000, 1221.500000, 1623.400000, 1677.500000, 1712.780000, 1858.590000, 2001.500000, 2142.700000, 2120.690000, 2143.190000, 2125.020000, 2163.110000, 2183.690000, 2230.810000, 2318.810000, 2368.910000, 2373.190000, 2336.900000, 2320.480000, 2378.790000, 2410.510000, 2382.990000, 2464.900000, 2459.510000, 2518.110000, 2590.700000, 2438.810000, 2339.510000, 2248.780000, 2195.620000, 2107.580000, 2058.500000, 1999.090000, 1960.590000, 1840.010000, 1755.210000, 1718.910000, 1781.710000, 1827.520000, 1859.690000, 1780.890000, 1675.100000, 1647.620000, 1801.590000, 1840.590000, 1887.210000, 1988.190000, 2151.800000, 2262.420000, 2406.190000, 2529.290000, 2657.300000, 2705.810000, 2751.780000, 2708.890000, 2708.200000, 2711.210000, 2781.480000, 2896.000000, 3168.320000, 3112.820000, 3059.910000, 3054.900000, 3056.900000, 3030.290000, 2993.610000
1820.920000, 1629.490000, 1456.810000, 1367.710000, 1316.390000, 1266.210000, 1228.680000, 1260.900000, 1336.400000, 1403.400000, 1487.110000, 1540.190000, 1627.480000, 1549.700000, 1414.100000, 1317.610000, 1368.900000, 1416.790000, 1559.010000, 1565.710000, 1514.300000, 1446.110000, 1290.500000, 1143.390000, 981.200000, 839.880000, 730.500000, 749.320000, 687.780000, 637.810000, 641.890000, 672.800000, 762.020000, 909.300000, 1055.190000, 1233.790000, 1480.900000, 1797.100000, 1791.910000, 1907.390000, 1968.510000, 1926.490000, 1928.290000, 1918.700000, 1955.610000, 1970.590000, 2025.590000, 2092.600000, 2219.300000, 2184.180000, 2161.200000, 2160.990000, 2196.720000, 2258.780000, 2272.380000, 2280.020000, 2353.590000, 2431.300000, 2375.110000, 2413.210000, 2457.590000, 2263.810000, 2182.510000, 2093.780000, 2019.390000, 1956.020000, 1887.990000, 1803.920000, 1671.500000, 1583.180000, 1567.500000, 1600.010000, 1680.400000, 1669.500000, 1666.810000, 1617.110000, 1685.100000, 1862.100000, 2068.590000, 2042.090000, 1989.700000, 2040.620000, 2146.420000, 2304.390000, 2413.090000, 2555.300000, 2686.290000, 2831.410000, 2793.780000, 2799.300000, 2790.590000, 2816.980000, 2937.420000, 2991.420000, 2975.790000, 2958.110000, 2946.490000, 2956.010000, 2964.400000, 2912.810000
1606.040000, 1496.990000, 1476.000000, 1440.310000, 1409.120000, 1330.880000, 1192.790000, 1213.080000, 1286.910000, 1317.000000, 1354.120000, 1434.310000, 1543.980000, 1571.380000, 1381.600000, 1184.990000, 1245.710000, 1240.400000, 1298.710000, 1420.590000, 1400.500000, 1339.090000, 1262.290000, 982.920000, 719.100000, 646.380000, 635.400000, 638.220000, 636.010000, 636.790000, 645.400000, 651.890000, 759.810000, 922.280000, 1076.910000, 1246.280000, 1508.580000, 1606.090000, 1744.590000, 1807.800000, 1775.420000, 1762.520000, 1781.710000, 1807.180000, 1808.290000, 1838.910000, 1914.690000, 1969.290000, 2108.890000, 2051.810000, 2009.920000, 2035.390000, 2067.280000, 2098.680000, 2150.290000, 2178.710000, 2226.690000, 2289.000000, 2254.700000, 2287.490000, 2411.290000, 2268.790000, 2141.720000, 2024.820000, 1940.700000, 1747.290000, 1731.480000, 1593.510000, 1483.310000, 1476.490000, 1457.790000, 1500.780000, 1539.000000, 1650.720000, 1730.590000, 1686.490000, 1810.000000, 2016.000000, 2086.310000, 2197.900000, 2137.800000, 2074.310000, 2119.920000, 2205.580000, 2337.020000, 2448.900000, 2578.900000, 2695.800000, 2838.810000, 2900.010000, 2867.510000, 2957.610000, 3012.610000, 2932.910000, 2890.620000, 2838.400000, 2852.890000, 2847.690000, 2854.120000, 2845.090000
1586.960000, 1508.990000, 1509.890000, 1521.000000, 1445.210000, 1338.600000, 1231.500000, 1178.500000, 1272.410000, 1308.790000, 1342.680000, 1407.200000, 1423.900000, 1426.510000, 1329.500000, 1180.910000, 1108.800000, 1087.490000, 1114.310000, 1177.520000, 1197.120000, 1263.100000, 1045.180000, 686.400000, 627.110000, 626.900000, 628.780000, 631.680000, 628.990000, 635.110000, 637.890000, 659.280000, 797.910000, 901.910000, 1044.410000, 1165.720000, 1269.190000, 1594.620000, 1465.300000, 1517.480000, 1578.810000, 1544.520000, 1583.710000, 1649.410000, 1715.310000, 1747.690000, 1803.920000, 1853.200000, 1993.300000, 1952.590000, 1962.390000, 1956.510000, 1970.720000, 1973.820000, 2070.790000, 2120.690000, 2136.700000, 2163.320000, 2134.700000, 2188.190000, 2355.880000, 2225.510000, 2153.600000, 2053.690000, 1958.590000, 1836.380000, 1624.910000, 1460.890000, 1404.300000, 1391.810000, 1491.880000, 1587.920000, 1725.400000, 1869.410000, 1874.310000, 1881.420000, 1901.920000, 2023.800000, 2211.300000, 2278.010000, 2230.900000, 2164.910000, 2151.520000, 2221.990000, 2317.300000, 2403.200000, 2479.400000, 2575.600000, 2773.320000, 2858.220000, 2861.590000, 2950.680000, 2922.020000, 2757.100000, 2687.510000, 2701.180000, 2734.680000, 2770.410000, 2805.490000, 2787.080000
1587.650000, 1549.700000, 1539.700000, 1532.920000, 1432.880000, 1357.710000, 1258.490000, 1132.320000, 1211.820000, 1323.000000, 1359.180000, 1400.090000, 1401.480000, 1353.300000, 1281.400000, 1151.020000, 1005.910000, 962.990000, 970.500000, 945.600000, 983.610000, 859.120000, 667.820000, 625.190000, 626.210000, 625.190000, 626.990000, 626.700000, 630.010000, 631.890000, 637.890000, 705.590000, 789.500000, 859.120000, 962.420000, 1066.790000, 1122.400000, 1209.820000, 1268.620000, 1324.310000, 1392.790000, 1434.190000, 1457.380000, 1499.890000, 1603.880000, 1650.720000, 1676.810000, 1732.380000, 1813.190000, 1828.790000, 1833.480000, 1853.820000, 1854.180000, 1897.990000, 1979.620000, 1996.190000, 2020.490000, 1989.210000, 2041.190000, 2187.490000, 2160.220000, 2250.290000, 2198.310000, 2024.410000, 1886.480000, 1714.780000, 1483.190000, 1382.210000, 1343.790000, 1434.110000, 1574.200000, 1749.900000, 1849.280000, 1976.510000, 1989.210000, 2024.000000, 2013.180000, 2144.410000, 2165.200000, 2311.090000, 2320.810000, 2273.690000, 2256.700000, 2318.190000, 2409.980000, 2484.300000, 2470.210000, 2518.190000, 2670.790000, 2725.610000, 2733.810000, 2748.580000, 2739.600000, 2658.120000, 2567.210000, 2578.600000, 2603.390000, 2637.800000, 2783.390000, 2764.890000
1602.970000, 1572.400000, 1533.610000, 1505.320000, 1431.700000, 1367.310000, 1307.810000, 1082.710000, 1208.180000, 1342.680000, 1352.120000, 1318.920000, 1308.100000, 1298.380000, 1141.020000, 1041.590000, 982.710000, 887.000000, 871.890000, 856.990000, 797.700000, 694.110000, 629.190000, 619.600000, 622.210000, 623.600000, 623.190000, 624.010000, 626.990000, 629.110000, 650.020000, 759.610000, 757.400000, 798.600000, 883.980000, 979.810000, 1020.320000, 1084.300000, 1133.100000, 1178.910000, 1202.590000, 1253.300000, 1317.690000, 1378.210000, 1445.700000, 1494.910000, 1531.900000, 1584.000000, 1632.510000, 1659.910000, 1694.200000, 1704.820000, 1721.110000, 1804.080000, 1849.490000, 1850.180000, 1872.880000, 1928.500000, 1956.510000, 1974.310000, 2001.790000, 2066.180000, 2024.080000, 1915.510000, 1764.390000, 1592.900000, 1439.990000, 1310.510000, 1370.000000, 1541.490000, 1640.800000, 1804.080000, 1938.090000, 2048.910000, 2103.910000, 2104.400000, 2096.310000, 2205.580000, 2251.880000, 2348.820000, 2414.600000, 2334.690000, 2369.890000, 2522.190000, 2512.180000, 2542.320000, 2487.600000, 2527.290000, 2685.010000, 2693.120000, 2630.600000, 2594.280000, 2558.510000, 2491.880000, 2469.510000, 2493.980000, 2462.900000, 2484.410000, 2610.820000, 2703.010000
1625.650000, 1539.210000, 1502.700000, 1457.590000, 1385.600000, 1361.300000, 1336.400000, 1099.490000, 1122.520000, 1300.910000, 1242.320000, 1223.910000, 1237.990000, 1066.790000, 986.790000, 927.510000, 886.190000, 836.090000, 829.100000, 802.890000, 762.710000, 670.880000, 622.900000, 619.190000, 621.110000, 621.600000, 620.500000, 683.210000, 650.790000, 670.510000, 680.880000, 704.810000, 738.500000, 749.400000, 826.980000, 875.000000, 927.510000, 970.500000, 1009.780000, 1080.790000, 1088.390000, 1148.000000, 1184.990000, 1253.180000, 1313.900000, 1374.620000, 1411.610000, 1448.680000, 1505.400000, 1529.080000, 1564.200000, 1575.510000, 1597.600000, 1690.610000, 1770.520000, 1809.590000, 1733.280000, 1844.710000, 1877.010000, 1849.610000, 1912.610000, 1900.610000, 1866.510000, 1856.510000, 1755.700000, 1547.900000, 1333.700000, 1319.700000, 1450.320000, 1651.090000, 1793.180000, 1859.820000, 1988.110000, 2143.600000, 2189.820000, 2249.390000, 2192.880000, 2325.300000, 2433.220000, 2453.510000, 2482.500000, 2426.110000, 2492.990000, 2597.400000, 2678.980000, 2585.520000, 2567.180000, 2695.890000, 2840.310000, 2729.120000, 2636.200000, 2547.980000, 2493.980000, 2405.980000, 2395.910000, 2377.680000, 2363.780000, 2374.990000, 2513.710000, 2560.600000
1662.700000, 1630.590000, 1549.910000, 1476.410000, 1430.720000, 1391.400000, 1259.390000, 1133.790000, 1053.190000, 1080.990000, 1079.400000, 1067.520000, 952.990000, 907.500000, 866.790000, 799.500000, 774.100000, 801.300000, 798.320000, 793.910000, 780.390000, 713.710000, 619.880000, 619.600000, 619.880000, 627.600000, 650.020000, 648.910000, 694.200000, 703.380000, 726.700000, 731.880000, 708.810000, 743.520000, 748.010000, 822.280000, 865.690000, 869.490000, 892.800000, 917.500000, 984.920000, 1038.080000, 1104.800000, 1159.600000, 1186.990000, 1208.390000, 1271.110000, 1349.500000, 1382.210000, 1419.080000, 1459.220000, 1479.100000, 1531.900000, 1630.020000, 1682.120000, 1593.510000, 1607.520000, 1694.000000, 1731.400000, 1685.180000, 1757.700000, 1739.200000, 1687.300000, 1687.390000, 1686.410000, 1468.280000, 1262.200000, 1388.090000, 1507.600000, 1772.320000, 1891.220000, 2007.910000, 2076.390000, 2120.000000, 2230.200000, 2308.390000, 2299.980000, 2341.920000, 2574.780000, 2519.820000, 2517.090000, 2528.310000, 2592.300000, 2744.800000, 2749.500000, 2657.710000, 2618.100000, 2770.120000, 2817.210000, 2766.400000, 2707.790000, 2622.990000, 2534.220000, 2387.480000, 2322.500000, 2257.510000, 2261.800000, 2272.420000, 2423.120000, 2355.990000
1708.210000, 1669.700000, 1602.620000, 1488.900000, 1404.100000, 1286.210000, 1154.200000, 1062.210000, 1021.220000, 1013.090000, 999.980000, 882.720000, 834.210000, 814.610000, 774.180000, 731.880000, 764.790000, 797.420000, 783.010000, 774.920000, 795.290000, 716.690000, 624.900000, 616.980000, 664.590000, 679.620000, 676.110000, 708.280000, 731.190000, 730.780000, 677.700000, 774.800000, 781.900000, 807.010000, 779.410000, 757.280000, 780.800000, 759.690000, 798.480000, 828.900000, 883.900000, 938.610000, 991.610000, 1017.710000, 1065.320000, 1084.910000, 1147.510000, 1175.810000, 1265.190000, 1298.010000, 1346.810000, 1390.090000, 1458.320000, 1516.100000, 1537.700000, 1470.690000, 1492.500000, 1548.110000, 1544.600000, 1524.790000, 1576.200000, 1600.290000, 1527.490000, 1485.510000, 1431.820000, 1422.800000, 1292.500000, 1391.400000, 1641.290000, 1757.700000, 2003.590000, 2169.120000, 2200.110000, 2225.020000, 2272.590000, 2400.590000, 2390.180000, 2356.980000, 2486.580000, 2549.790000, 2557.920000, 2615.080000, 2622.720000, 2692.780000, 2733.210000, 2659.510000, 2659.300000, 2826.590000, 2847.600000, 2800.980000, 2741.380000, 2630.600000, 2513.390000, 2409.400000, 2274.190000, 2217.780000, 2216.910000, 2203.790000, 2270.090000, 2254.420000
1702.330000, 1565.990000, 1457.990000, 1363.300000, 1214.390000, 1139.220000, 1060.010000, 998.800000, 1010.190000, 962.500000, 904.190000, 810.610000, 778.390000, 746.220000, 693.580000, 679.010000, 685.290000, 757.200000, 768.590000, 747.320000, 769.690000, 708.400000, 695.010000, 723.310000, 717.510000, 687.580000, 720.610000, 824.000000, 904.190000, 942.210000, 880.720000, 848.420000, 877.410000, 899.990000, 872.300000, 861.400000, 858.380000, 895.290000, 832.620000, 813.300000, 808.480000, 832.410000, 842.900000, 872.300000, 918.810000, 961.680000, 993.820000, 1034.200000, 1116.520000, 1186.380000, 1239.380000, 1269.390000, 1331.620000, 1382.210000, 1363.790000, 1319.980000, 1363.100000, 1399.890000, 1399.810000, 1373.510000, 1435.980000, 1418.790000, 1380.210000, 1288.300000, 1308.920000, 1206.710000, 1260.410000, 1397.320000, 1657.780000, 1899.790000, 2008.280000, 2203.780000, 2331.790000, 2299.410000, 2360.010000, 2411.290000, 2428.320000, 2395.120000, 2526.680000, 2610.300000, 2612.790000, 2715.610000, 2661.710000, 2730.800000, 2745.090000, 2727.690000, 2792.980000, 2797.800000, 2726.200000, 2698.220000, 2682.180000, 2645.000000, 2549.710000, 2428.720000, 2359.410000, 2262.480000, 2180.090000, 2169.020000, 2136.390000, 2137.990000
1461.990000, 1373.880000, 1278.210000, 1098.920000, 1046.000000, 1013.210000, 963.600000, 974.220000, 952.090000, 909.010000, 771.080000, 767.690000, 733.190000, 684.800000, 660.710000, 653.810000, 667.410000, 668.800000, 703.300000, 724.080000, 707.020000, 730.210000, 639.320000, 768.100000, 723.310000, 756.010000, 856.990000, 999.290000, 1036.120000, 1085.200000, 1022.890000, 960.990000, 952.700000, 934.000000, 936.210000, 973.810000, 965.320000, 944.980000, 945.800000, 911.710000, 850.910000, 821.100000, 873.120000, 843.390000, 855.600000, 898.880000, 876.590000, 892.510000, 958.990000, 1016.480000, 1074.220000, 1119.210000, 1223.290000, 1229.790000, 1235.500000, 1205.490000, 1246.610000, 1250.610000, 1251.790000, 1257.590000, 1279.310000, 1220.880000, 1212.510000, 1235.990000, 1287.190000, 1206.590000, 1295.690000, 1434.190000, 1714.420000, 1936.700000, 2052.580000, 2170.910000, 2303.000000, 2392.180000, 2425.010000, 2494.990000, 2483.480000, 2494.010000, 2578.620000, 2638.680000, 2649.220000, 2715.490000, 2742.880000, 2775.180000, 2669.800000, 2648.600000, 2731.490000, 2765.100000, 2688.610000, 2633.880000, 2588.400000, 2562.790000, 2545.790000, 2530.110000, 2472.700000, 2383.700000, 2229.400000, 2164.780000, 2098.200000, 2087.080000
1289.550000, 1201.080000, 1029.710000, 967.480000, 931.790000, 921.590000, 904.400000, 919.380000, 939.510000, 870.300000, 712.900000, 700.890000, 656.510000, 634.300000, 641.400000, 694.400000, 715.020000, 688.400000, 690.320000, 699.710000, 728.490000, 684.890000, 748.710000, 794.320000, 845.800000, 885.000000, 962.220000, 1093.690000, 1257.710000, 1221.900000, 1156.980000, 1094.920000, 1039.800000, 1036.900000, 1043.510000, 1024.480000, 1025.590000, 1067.680000, 1060.910000, 1038.280000, 984.710000, 919.910000, 904.890000, 909.790000, 858.580000, 886.390000, 867.400000, 860.300000, 874.020000, 924.000000, 1007.910000, 1054.780000, 1064.580000, 1091.200000, 1111.900000, 1109.700000, 1103.980000, 1123.990000, 1124.190000, 1135.010000, 1178.790000, 1135.010000, 1079.810000, 1109.490000, 1098.310000, 1356.810000, 1430.390000, 1507.810000, 1634.920000, 1864.190000, 1924.980000, 1982.800000, 2200.680000, 2358.290000, 2468.210000, 2545.710000, 2431.580000, 2432.400000, 2453.310000, 2505.410000, 2582.210000, 2623.700000, 2686.090000, 2707.200000, 2604.510000, 2561.390000, 2601.890000, 2688.990000, 2610.410000, 2514.990000, 2460.800000, 2484.000000, 2431.500000, 2377.090000, 2396.690000, 2444.900000, 2350.610000, 2263.490000, 2190.120000, 2105.590000
1105.270000, 1013.010000, 943.600000, 889.900000, 867.490000, 850.990000, 852.580000, 850.500000, 714.610000, 665.290000, 662.800000, 642.010000, 626.290000, 618.210000, 656.510000, 692.110000, 706.000000, 725.880000, 689.790000, 681.780000, 723.190000, 656.020000, 766.020000, 839.880000, 888.720000, 975.400000, 1047.880000, 1176.580000, 1291.110000, 1367.390000, 1297.120000, 1185.810000, 1135.220000, 1130.400000, 1129.580000, 1125.700000, 1104.510000, 1138.480000, 1143.590000, 1104.310000, 1051.390000, 958.990000, 1002.390000, 1026.280000, 978.300000, 988.180000, 998.880000, 955.800000, 866.010000, 875.690000, 879.610000, 952.700000, 933.310000, 945.800000, 978.510000, 1007.210000, 1014.810000, 995.410000, 1023.380000, 1031.380000, 1012.400000, 1019.090000, 1070.010000, 1090.790000, 1230.110000, 1340.320000, 1483.720000, 1535.820000, 1642.180000, 1743.410000, 1839.480000, 1942.910000, 2080.100000, 2208.800000, 2370.580000, 2349.920000, 2320.190000, 2363.800000, 2395.410000, 2451.710000, 2560.200000, 2502.510000, 2595.810000, 2551.910000, 2482.700000, 2454.820000, 2466.410000, 2570.900000, 2456.110000, 2463.580000, 2369.480000, 2399.190000, 2354.900000, 2333.710000, 2292.600000, 2360.500000, 2492.790000, 2356.310000, 2270.320000, 2119.120000
1045.150000, 989.900000, 948.700000, 960.210000, 879.980000, 686.890000, 712.610000, 618.210000, 600.000000, 599.710000, 599.590000, 599.020000, 604.820000, 606.610000, 608.980000, 621.390000, 609.180000, 609.510000, 617.600000, 704.000000, 663.900000, 769.080000, 796.320000, 852.090000, 943.880000, 1102.800000, 1140.690000, 1235.210000, 1281.800000, 1380.000000, 1372.290000, 1336.600000, 1264.610000, 1239.090000, 1229.700000, 1235.990000, 1205.490000, 1212.590000, 1187.890000, 1190.020000, 1110.310000, 1064.010000, 1058.620000, 1116.890000, 1088.300000, 1096.800000, 1072.580000, 1017.580000, 954.500000, 899.780000, 876.920000, 900.310000, 917.220000, 893.900000, 920.000000, 946.210000, 956.990000, 953.110000, 963.200000, 952.290000, 954.420000, 968.220000, 1014.520000, 1087.120000, 1190.590000, 1361.510000, 1402.500000, 1444.400000, 1512.790000, 1621.400000, 1782.120000, 1932.010000, 2038.780000, 2106.690000, 2195.900000, 2234.410000, 2248.000000, 2280.790000, 2336.490000, 2380.990000, 2444.000000, 2389.490000, 2517.900000, 2400.100000, 2386.910000, 2348.490000, 2342.280000, 2407.820000, 2402.380000, 2298.620000, 2301.400000, 2301.900000, 2290.420000, 2293.790000, 2226.300000, 2247.900000, 2364.420000, 2456.700000, 2348.790000, 2222.610000
928.070000, 944.090000, 955.110000, 933.920000, 633.810000, 606.280000, 599.510000, 597.180000, 596.690000, 596.690000, 596.690000, 597.300000, 600.810000, 598.810000, 600.490000, 602.410000, 603.100000, 606.900000, 622.090000, 685.780000, 701.100000, 732.290000, 810.480000, 889.410000, 978.300000, 1081.480000, 1178.500000, 1241.790000, 1324.310000, 1402.790000, 1430.880000, 1440.390000, 1410.300000, 1355.300000, 1349.990000, 1329.780000, 1319.210000, 1284.580000, 1269.880000, 1229.300000, 1168.290000, 1160.410000, 1115.210000, 1244.400000, 1195.810000, 1166.500000, 1155.100000, 1096.800000, 1046.900000, 998.390000, 964.090000, 930.900000, 932.610000, 939.720000, 952.620000, 935.510000, 932.690000, 968.910000, 945.510000, 977.690000, 1002.520000, 1020.890000, 1103.290000, 1126.400000, 1154.290000, 1242.120000, 1305.900000, 1361.510000, 1443.010000, 1549.990000, 1735.690000, 1900.490000, 1986.520000, 2084.720000, 2099.090000, 2145.310000, 2154.990000, 2199.620000, 2276.910000, 2317.300000, 2293.610000, 2337.510000, 2368.780000, 2323.220000, 2322.110000, 2295.080000, 2274.380000, 2246.820000, 2251.500000, 2222.700000, 2228.720000, 2228.400000, 2200.420000, 2213.220000, 2171.300000, 2164.010000, 2254.190000, 2327.690000, 2323.410000, 2239.610000
716.710000, 668.190000, 625.520000, 593.220000, 589.990000, 596.810000, 597.100000, 594.000000, 593.710000, 594.610000, 595.710000, 597.590000, 602.610000, 603.710000, 604.280000, 606.280000, 608.410000, 667.410000, 781.410000, 743.680000, 776.880000, 853.320000, 909.300000, 962.500000, 1048.080000, 1076.910000, 1162.620000, 1264.080000, 1353.990000, 1391.320000, 1480.610000, 1501.680000, 1578.200000, 1527.080000, 1476.490000, 1476.820000, 1472.490000, 1427.080000, 1398.210000, 1336.890000, 1276.410000, 1196.590000, 1124.320000, 1275.190000, 1395.890000, 1271.190000, 1269.800000, 1222.880000, 1155.310000, 1172.990000, 1124.320000, 1093.200000, 1045.100000, 1007.780000, 980.510000, 974.710000, 1030.610000, 1000.720000, 1025.590000, 1060.210000, 1056.700000, 1067.190000, 1078.910000, 1099.080000, 1121.090000, 1203.820000, 1239.300000, 1305.810000, 1398.300000, 1528.800000, 1671.300000, 1789.380000, 1906.820000, 1964.180000, 1948.010000, 1993.420000, 2110.320000, 2156.010000, 2194.720000, 2209.910000, 2199.500000, 2262.500000, 2300.510000, 2236.690000, 2207.300000, 2182.510000, 2173.610000, 2136.900000, 2133.880000, 2124.410000, 2121.580000, 2165.510000, 2173.390000, 2114.010000, 2091.410000, 2122.990000, 2237.190000, 2260.020000, 2217.090000, 2131.790000
648.440000, 593.510000, 589.590000, 590.810000, 591.910000, 594.890000, 591.590000, 592.400000, 593.510000, 594.400000, 595.510000, 597.710000, 600.000000, 608.290000, 607.920000, 609.920000, 669.900000, 737.400000, 836.090000, 847.110000, 907.700000, 1001.620000, 1047.590000, 1119.700000, 1090.790000, 1121.420000, 1206.510000, 1281.310000, 1354.810000, 1418.390000, 1469.790000, 1552.600000, 1577.020000, 1649.490000, 1652.390000, 1587.100000, 1536.190000, 1518.380000, 1474.820000, 1442.400000, 1403.480000, 1259.310000, 1209.820000, 1207.000000, 1406.220000, 1509.110000, 1375.800000, 1317.610000, 1313.900000, 1318.800000, 1279.890000, 1222.190000, 1149.310000, 1124.110000, 1111.290000, 1103.000000, 1099.490000, 1124.480000, 1021.380000, 1015.210000, 1042.490000, 1027.790000, 1098.180000, 1164.620000, 1148.900000, 1128.110000, 1196.020000, 1237.500000, 1315.000000, 1439.780000, 1539.210000, 1662.320000, 1798.610000, 1838.790000, 1837.120000, 1885.910000, 2051.890000, 2064.380000, 2078.720000, 2062.300000, 2046.910000, 2115.380000, 2168.220000, 2159.890000, 2106.200000, 2092.110000, 2082.590000, 2083.210000, 2058.100000, 2023.880000, 2034.400000, 2058.690000, 2108.090000, 2052.680000, 2056.190000, 2084.800000, 2169.380000, 2220.510000, 2137.620000, 2048.800000
604.820000, 589.590000, 589.790000, 589.910000, 592.480000, 590.400000, 590.890000, 591.790000, 593.100000, 594.120000, 595.300000, 597.910000, 603.920000, 616.210000, 619.880000, 694.890000, 761.400000, 968.100000, 980.100000, 1006.110000, 1011.580000, 1045.180000, 1123.910000, 1172.780000, 1192.020000, 1191.400000, 1270.700000, 1315.490000, 1398.580000, 1475.710000, 1550.190000, 1612.010000, 1639.000000, 1661.090000, 1711.680000, 1711.800000, 1646.590000, 1609.110000, 1563.300000, 1504.790000, 1451.790000, 1399.680000, 1317.080000, 1211.700000, 1214.390000, 1434.520000, 1473.800000, 1461.910000, 1491.110000, 1487.190000, 1459.990000, 1349.590000, 1365.100000, 1267.190000, 1275.110000, 1250.810000, 1202.800000, 1179.890000, 1154.080000, 1108.600000, 1100.390000, 1202.020000, 1192.100000, 1296.010000, 1307.610000, 1201.900000, 1128.890000, 1176.500000, 1241.100000, 1322.190000, 1425.290000, 1549.290000, 1705.880000, 1735.810000, 1786.690000, 1871.410000, 1952.910000, 1957.810000, 1975.980000, 1930.500000, 1933.890000, 1987.990000, 2032.090000, 2041.800000, 2003.790000, 1981.900000, 1989.300000, 1979.090000, 1965.410000, 1927.500000, 1922.300000, 1942.220000, 1972.110000, 1914.510000, 1940.480000, 2027.300000, 2073.000000, 2095.790000, 2025.290000, 1976.620000
588.000000, 589.500000, 589.380000, 590.120000, 590.120000, 590.120000, 590.320000, 591.220000, 592.610000, 594.200000, 597.020000, 598.280000, 605.790000, 633.400000, 691.710000, 737.310000, 895.780000, 959.890000, 983.900000, 1029.990000, 1030.610000, 1054.780000, 1109.210000, 1168.090000, 1221.410000, 1268.000000, 1366.200000, 1358.280000, 1410.020000, 1524.020000, 1627.120000, 1728.010000, 1763.290000, 1783.010000, 1811.800000, 1844.910000, 1820.620000, 1734.300000, 1680.610000, 1639.290000, 1540.310000, 1455.710000, 1398.010000, 1280.420000, 1208.720000, 1236.600000, 1403.810000, 1488.090000, 1573.380000, 1679.300000, 1596.780000, 1473.800000, 1528.100000, 1416.020000, 1440.390000, 1364.280000, 1309.820000, 1297.480000, 1279.520000, 1238.110000, 1241.220000, 1263.310000, 1279.400000, 1325.780000, 1380.980000, 1269.110000, 1159.510000, 1134.400000, 1147.310000, 1224.600000, 1324.800000, 1439.990000, 1555.700000, 1618.910000, 1712.420000, 1801.920000, 1818.010000, 1818.990000, 1838.910000, 1821.680000, 1815.190000, 1859.000000, 1871.290000, 1900.200000, 1893.790000, 1849.810000, 1870.190000, 1863.490000, 1828.290000, 1789.420000, 1788.780000, 1814.120000, 1813.710000, 1799.400000, 1804.820000, 1881.520000, 1986.780000, 1965.000000, 1931.100000, 1903.120000
586.800000, 588.690000, 588.610000, 589.990000, 589.590000, 589.380000, 589.590000, 590.690000, 593.380000, 595.910000, 598.690000, 616.620000, 712.080000, 788.110000, 815.020000, 854.420000, 894.520000, 940.620000, 988.180000, 1004.880000, 1026.400000, 1049.190000, 1099.490000, 1180.300000, 1239.380000, 1299.280000, 1351.220000, 1392.910000, 1494.700000, 1579.710000, 1663.210000, 1779.710000, 1903.300000, 1960.790000, 1942.220000, 1959.200000, 1937.400000, 1882.110000, 1861.900000, 1788.400000, 1661.620000, 1535.900000, 1444.190000, 1367.710000, 1240.810000, 1225.210000, 1317.610000, 1386.210000, 1496.010000, 1623.690000, 1725.480000, 1697.180000, 1704.210000, 1573.710000, 1583.710000, 1462.280000, 1456.810000, 1434.110000, 1371.100000, 1364.690000, 1349.910000, 1375.110000, 1355.790000, 1416.180000, 1441.210000, 1366.490000, 1224.310000, 1147.180000, 1156.980000, 1151.180000, 1225.780000, 1356.890000, 1437.290000, 1548.880000, 1621.120000, 1682.810000, 1688.120000, 1723.890000, 1700.210000, 1726.580000, 1713.190000, 1721.890000, 1692.000000, 1712.500000, 1733.200000, 1727.690000, 1708.490000, 1722.420000, 1661.600000, 1623.680000, 1640.500000, 1679.600000, 1696.180000, 1672.080000, 1678.590000, 1762.900000, 1820.000000, 1796.890000, 1815.490000, 1844.010000
586.400000, 588.120000, 588.610000, 587.990000, 588.610000, 589.100000, 589.790000, 595.220000, 597.910000, 599.790000, 644.380000, 757.690000, 905.580000, 930.280000, 927.510000, 879.410000, 904.520000, 960.580000, 997.490000, 1060.210000, 1063.310000, 1098.800000, 1147.710000, 1200.920000, 1292.300000, 1360.280000, 1437.010000, 1528.180000, 1561.910000, 1642.920000, 1685.380000, 1757.290000, 1842.220000, 1997.580000, 2091.290000, 2121.100000, 2078.180000, 2014.690000, 1978.800000, 1876.190000, 1750.710000, 1610.420000, 1508.300000, 1422.590000, 1307.280000, 1210.310000, 1224.680000, 1292.500000, 1383.880000, 1481.510000, 1649.000000, 1718.700000, 1807.100000, 1754.590000, 1658.800000, 1624.010000, 1611.600000, 1565.500000, 1483.190000, 1503.400000, 1468.000000, 1488.000000, 1493.110000, 1487.880000, 1549.500000, 1453.710000, 1315.000000, 1199.490000, 1176.300000, 1160.210000, 1166.780000, 1259.590000, 1337.990000, 1404.590000, 1494.500000, 1510.910000, 1528.710000, 1564.320000, 1589.510000, 1607.110000, 1607.310000, 1616.500000, 1594.410000, 1580.900000, 1588.200000, 1565.910000, 1542.190000, 1527.490000, 1491.300000, 1513.810000, 1566.490000, 1585.400000, 1605.410000, 1671.120000, 1743.300000, 1817.310000, 1788.280000, 1796.890000, 1810.520000, 1816.580000
586.400000, 587.220000, 588.320000, 591.300000, 589.910000, 591.300000, 588.200000, 639.110000, 673.210000, 689.500000, 754.380000, 860.100000, 980.510000, 995.210000, 995.000000, 975.400000, 987.610000, 1023.500000, 1009.290000, 1070.500000, 1117.010000, 1124.680000, 1200.920000, 1304.790000, 1366.200000, 1451.090000, 1541.820000, 1586.490000, 1636.710000, 1683.300000, 1710.500000, 1762.520000, 1831.890000, 1936.990000, 2034.010000, 2128.410000, 2203.210000, 2170.710000, 2021.310000, 1908.410000, 1810.490000, 1690.690000, 1566.200000, 1489.190000, 1405.810000, 1321.410000, 1217.900000, 1253.300000, 1306.300000, 1385.390000, 1476.820000, 1647.900000, 1703.390000, 1797.920000, 1904.280000, 1778.400000, 1792.810000, 1680.120000, 1628.710000, 1673.790000, 1613.110000, 1604.420000, 1587.590000, 1575.180000, 1572.890000, 1488.780000, 1370.610000, 1260.200000, 1208.920000, 1190.380000, 1166.900000, 1161.390000, 1202.800000, 1253.020000, 1323.290000, 1368.410000, 1380.000000, 1395.110000, 1423.290000, 1471.300000, 1437.980000, 1469.020000, 1462.690000, 1435.900000, 1409.810000, 1386.990000, 1374.210000, 1384.620000, 1437.800000, 1439.080000, 1562.980000, 1683.610000, 1637.400000, 1710.990000, 1742.890000, 1781.990000, 1794.200000, 1915.010000, 1982.820000, 1974.980000
586.700000, 587.500000, 588.690000, 589.790000, 597.910000, 597.180000, 704.400000, 736.420000, 784.800000, 811.790000, 891.490000, 980.020000, 1001.620000, 1029.220000, 1042.490000, 1019.500000, 1027.380000, 1082.910000, 1089.690000, 1057.520000, 1143.510000, 1182.910000, 1288.700000, 1362.000000, 1437.410000, 1522.710000, 1573.100000, 1622.710000, 1653.410000, 1666.890000, 1696.410000, 1784.890000, 1863.620000, 1933.680000, 2009.510000, 2072.020000, 2157.400000, 2219.300000, 2107.380000, 1961.080000, 1903.590000, 1833.890000, 1730.010000, 1594.700000, 1499.520000, 1404.990000, 1312.310000, 1219.700000, 1260.980000, 1300.990000, 1408.510000, 1563.300000, 1614.420000, 1693.100000, 1791.790000, 1931.110000, 1969.410000, 1823.110000, 1771.500000, 1803.710000, 1743.490000, 1714.090000, 1677.790000, 1655.010000, 1600.210000, 1528.390000, 1441.290000, 1339.090000, 1279.890000, 1225.620000, 1186.790000, 1181.320000, 1166.010000, 1166.090000, 1197.490000, 1226.400000, 1244.610000, 1240.480000, 1279.110000, 1293.320000, 1306.590000, 1272.490000, 1268.090000, 1265.510000, 1264.410000, 1318.310000, 1439.990000, 1519.280000, 1582.990000, 1562.390000, 1496.500000, 1579.210000, 1685.700000, 1687.980000, 1673.400000, 1713.680000, 1795.620000, 1913.780000, 2035.820000, 2150.010000
